ply
format ascii 1.0
element face 0
property list uchar int vertex_indices
element vertex 123
property float x
property float y
property float z
property uchar diffuse_red
property uchar diffuse_green
property uchar diffuse_blue
end_header
-8.109827e-004 -9.680416e-002 -1.091583e+000 0 0 0
4.023121e-004 -9.838250e-002 -1.092272e+000 0 0 0
1.616211e-003 -1.029884e-001 -1.092343e+000 0 0 0
7.580762e-003 -1.108875e-001 -1.092000e+000 0 0 0
1.686965e-002 -1.185884e-001 -1.091771e+000 0 0 0
2.374496e-002 -1.258674e-001 -1.090091e+000 0 0 0
3.305954e-002 -1.325826e-001 -1.089956e+000 0 0 0
4.372265e-002 -1.371160e-001 -1.087616e+000 0 0 0
5.920495e-002 -1.401761e-001 -1.079433e+000 0 0 0
7.184608e-002 -1.420295e-001 -1.070757e+000 0 0 0
8.387089e-002 -1.414962e-001 -1.058227e+000 0 0 0
9.393915e-002 -1.377023e-001 -1.046326e+000 0 0 0
9.940504e-002 -1.342754e-001 -1.036950e+000 0 0 0
1.013324e-001 -1.305693e-001 -1.026454e+000 0 0 0
1.010473e-001 -1.258741e-001 -1.016521e+000 0 0 0
9.754161e-002 -1.211287e-001 -1.009465e+000 0 0 0
9.181203e-002 -1.133096e-001 -1.001627e+000 0 0 0
8.429559e-002 -1.062569e-001 -1.001060e+000 0 0 0
7.709974e-002 -1.014581e-001 -9.990091e-001 0 0 0
6.785763e-002 -9.703144e-002 -9.933845e-001 0 0 0
5.731101e-002 -9.396259e-002 -9.882435e-001 0 0 0
4.310618e-002 -9.215856e-002 -9.872097e-001 0 0 0
2.301503e-002 -8.851553e-002 -9.846365e-001 0 0 0
-1.366978e-002 -7.340820e-002 -9.816358e-001 0 0 0
-2.359917e-002 -6.958131e-002 -9.822965e-001 0 0 0
-3.483091e-002 -6.895304e-002 -9.876020e-001 0 0 0
-4.651161e-002 -6.912299e-002 -9.959483e-001 0 0 0
-5.874779e-002 -7.124956e-002 -1.009335e+000 0 0 0
-7.585962e-002 -7.544207e-002 -1.033529e+000 0 0 0
-8.375397e-002 -7.709425e-002 -1.043650e+000 0 0 0
-8.947083e-002 -7.804590e-002 -1.055321e+000 0 0 0
-9.586229e-002 -8.077722e-002 -1.072466e+000 0 0 0
-9.895497e-002 -8.951970e-002 -1.100361e+000 0 0 0
-9.583570e-002 -9.598874e-002 -1.111664e+000 0 0 0
-9.132465e-002 -1.030823e-001 -1.121026e+000 0 0 0
-8.344539e-002 -1.111039e-001 -1.127690e+000 0 0 0
-7.628427e-002 -1.170767e-001 -1.130699e+000 0 0 0
-6.923635e-002 -1.232037e-001 -1.135524e+000 0 0 0
-6.051717e-002 -1.299637e-001 -1.140904e+000 0 0 0
-5.121680e-002 -1.353722e-001 -1.145534e+000 0 0 0
-4.216286e-002 -1.402390e-001 -1.148148e+000 0 0 0
-2.989170e-002 -1.447443e-001 -1.151120e+000 0 0 0
-1.872306e-002 -1.469193e-001 -1.152817e+000 0 0 0
-3.562515e-003 -1.494387e-001 -1.153823e+000 0 0 0
9.797399e-003 -1.507975e-001 -1.150754e+000 0 0 0
2.118706e-002 -1.520613e-001 -1.148056e+000 0 0 0
3.377871e-002 -1.522812e-001 -1.145482e+000 0 0 0
4.425239e-002 -1.510141e-001 -1.137634e+000 0 0 0
5.612309e-002 -1.492814e-001 -1.130799e+000 0 0 0
6.572687e-002 -1.474880e-001 -1.123745e+000 0 0 0
7.407315e-002 -1.442087e-001 -1.114852e+000 0 0 0
8.132120e-002 -1.405863e-001 -1.108871e+000 0 0 0
8.469793e-002 -1.354855e-001 -1.098750e+000 0 0 0
8.594934e-002 -1.301108e-001 -1.091637e+000 0 0 0
8.351565e-002 -1.239266e-001 -1.083704e+000 0 0 0
7.707875e-002 -1.187146e-001 -1.075630e+000 0 0 0
7.029265e-002 -1.136523e-001 -1.069030e+000 0 0 0
6.196588e-002 -1.089348e-001 -1.063086e+000 0 0 0
5.248153e-002 -1.058109e-001 -1.060230e+000 0 0 0
3.773602e-002 -1.027301e-001 -1.058649e+000 0 0 0
2.018904e-002 -1.001861e-001 -1.055834e+000 0 0 0
4.897959e-003 -9.783652e-002 -1.058947e+000 0 0 0
-1.309843e-002 -9.463611e-002 -1.062323e+000 0 0 0
-3.858244e-002 -8.740623e-002 -1.073664e+000 0 0 0
-4.621194e-002 -8.248339e-002 -1.082234e+000 0 0 0
-5.116482e-002 -7.424721e-002 -1.095333e+000 0 0 0
-5.398752e-002 -6.495141e-002 -1.107108e+000 0 0 0
-5.392589e-002 -5.336664e-002 -1.118726e+000 0 0 0
-5.288894e-002 -4.329279e-002 -1.127219e+000 0 0 0
-5.094082e-002 -3.260408e-002 -1.133820e+000 0 0 0
-4.858590e-002 -2.467415e-002 -1.138478e+000 0 0 0
-4.616607e-002 -1.521196e-002 -1.141063e+000 0 0 0
-4.250382e-002 -6.604605e-003 -1.144057e+000 0 0 0
-3.877114e-002 -8.157694e-004 -1.145328e+000 0 0 0
-3.095736e-002 -2.663549e-004 -1.147469e+000 0 0 0
-1.992491e-002 -2.233022e-003 -1.147283e+000 0 0 0
-5.275803e-003 -2.628532e-003 -1.146894e+000 0 0 0
8.547805e-003 -1.093489e-003 -1.145370e+000 0 0 0
1.912038e-002 2.925670e-003 -1.138518e+000 0 0 0
2.110183e-002 9.850451e-003 -1.133114e+000 0 0 0
1.329371e-002 2.046400e-002 -1.126953e+000 0 0 0
-2.164008e-002 4.070930e-002 -1.117728e+000 0 0 0
-2.982282e-002 3.821943e-002 -1.116981e+000 0 0 0
-4.852800e-002 2.398606e-002 -1.107007e+000 0 0 0
-5.896347e-002 1.689095e-002 -1.097477e+000 0 0 0
-6.671056e-002 1.103141e-002 -1.086212e+000 0 0 0
-7.419354e-002 8.180670e-003 -1.001450e+000 0 0 0
-7.519121e-002 2.963628e-003 -9.928353e-001 0 0 0
-5.722799e-002 -1.017122e-001 -1.080578e+000 0 0 0
-4.364234e-002 -1.111624e-001 -1.098266e+000 0 0 0
-1.890311e-002 -1.231355e-001 -1.121308e+000 0 0 0
-9.023001e-003 -1.276833e-001 -1.127721e+000 0 0 0
2.667703e-003 -1.316553e-001 -1.135127e+000 0 0 0
9.511907e-003 -1.344971e-001 -1.139095e+000 0 0 0
1.689972e-002 -1.372066e-001 -1.143388e+000 0 0 0
2.154609e-002 -1.389760e-001 -1.146912e+000 0 0 0
2.655497e-002 -1.406798e-001 -1.151126e+000 0 0 0
3.002062e-002 -1.416670e-001 -1.155538e+000 0 0 0
3.166297e-002 -1.429893e-001 -1.161385e+000 0 0 0
2.933683e-002 -1.434272e-001 -1.163847e+000 0 0 0
2.327038e-002 -1.441694e-001 -1.170679e+000 0 0 0
1.486793e-002 -1.443128e-001 -1.176435e+000 0 0 0
7.547442e-003 -1.432037e-001 -1.180834e+000 0 0 0
-1.072415e-003 -1.416830e-001 -1.186053e+000 0 0 0
-8.741866e-003 -1.397446e-001 -1.188863e+000 0 0 0
-1.460760e-002 -1.379031e-001 -1.193155e+000 0 0 0
-1.989729e-002 -1.359413e-001 -1.196271e+000 0 0 0
-2.279699e-002 -1.343919e-001 -1.197494e+000 0 0 0
-2.489073e-002 -1.329809e-001 -1.199276e+000 0 0 0
-2.600783e-002 -1.323381e-001 -1.198652e+000 0 0 0
-2.523260e-002 -1.333303e-001 -1.198907e+000 0 0 0
-2.321694e-002 -1.340952e-001 -1.195962e+000 0 0 0
-2.250387e-002 -1.344139e-001 -1.194207e+000 0 0 0
-2.136181e-002 -1.350847e-001 -1.192838e+000 0 0 0
-1.981836e-002 -1.355338e-001 -1.192611e+000 0 0 0
-1.950333e-002 -1.354075e-001 -1.192911e+000 0 0 0
-1.982825e-002 -1.355778e-001 -1.192989e+000 0 0 0
-1.998156e-002 -1.358839e-001 -1.192585e+000 0 0 0
-1.998156e-002 -1.358839e-001 -1.192585e+000 0 0 0
1.048215e-002 -2.430913e-003 -3.883916e-002 0 255 0
1.001302e-002 -2.260640e-003 -8.883667e-002 255 255 0
-9.441581e-001 -8.831473e-002 -3.902120e-001 255 0 0
-9.022137e-001 -8.242264e-002 -4.167816e-001 255 255 0
