ply
format ascii 1.0
element face 0
property list uchar int vertex_indices
element vertex 127
property float x
property float y
property float z
property uchar diffuse_red
property uchar diffuse_green
property uchar diffuse_blue
end_header
-6.108368e-003 -9.370739e-002 -1.080143e+000 0 0 0
-4.592980e-003 -9.539743e-002 -1.081246e+000 0 0 0
-3.242010e-003 -1.003136e-001 -1.081452e+000 0 0 0
2.841261e-003 -1.082373e-001 -1.081432e+000 0 0 0
1.232800e-002 -1.172383e-001 -1.081402e+000 0 0 0
1.999417e-002 -1.247348e-001 -1.081170e+000 0 0 0
3.027756e-002 -1.325410e-001 -1.082737e+000 0 0 0
4.177929e-002 -1.370515e-001 -1.080744e+000 0 0 0
5.685831e-002 -1.406402e-001 -1.072913e+000 0 0 0
7.020286e-002 -1.433583e-001 -1.063233e+000 0 0 0
8.050826e-002 -1.412703e-001 -1.049476e+000 0 0 0
8.892032e-002 -1.364041e-001 -1.035132e+000 0 0 0
9.284187e-002 -1.319069e-001 -1.023400e+000 0 0 0
9.313826e-002 -1.270714e-001 -1.010512e+000 0 0 0
9.076008e-002 -1.211215e-001 -9.980917e-001 0 0 0
8.423542e-002 -1.146702e-001 -9.872074e-001 0 0 0
7.728425e-002 -1.062276e-001 -9.784302e-001 0 0 0
6.858723e-002 -9.851452e-002 -9.756298e-001 0 0 0
5.977792e-002 -9.260139e-002 -9.719445e-001 0 0 0
5.044309e-002 -8.752846e-002 -9.655155e-001 0 0 0
3.841467e-002 -8.329115e-002 -9.581847e-001 0 0 0
2.319636e-002 -8.122828e-002 -9.541337e-001 0 0 0
1.951584e-003 -7.677392e-002 -9.507981e-001 0 0 0
-3.630313e-002 -6.004249e-002 -9.404659e-001 0 0 0
-4.594715e-002 -5.608749e-002 -9.409181e-001 0 0 0
-5.636619e-002 -5.544517e-002 -9.456743e-001 0 0 0
-6.657836e-002 -5.611440e-002 -9.559428e-001 0 0 0
-7.725481e-002 -5.866762e-002 -9.691417e-001 0 0 0
-9.142523e-002 -6.406161e-002 -9.957909e-001 0 0 0
-9.792293e-002 -6.650694e-002 -1.008477e+000 0 0 0
-1.025177e-001 -6.829655e-002 -1.021856e+000 0 0 0
-1.077236e-001 -7.200268e-002 -1.039897e+000 0 0 0
-1.075048e-001 -8.284657e-002 -1.074929e+000 0 0 0
-1.035951e-001 -9.074496e-002 -1.089699e+000 0 0 0
-9.782494e-002 -9.919048e-002 -1.102548e+000 0 0 0
-8.890121e-002 -1.081237e-001 -1.112497e+000 0 0 0
-8.093067e-002 -1.150346e-001 -1.117687e+000 0 0 0
-7.247284e-002 -1.225222e-001 -1.124810e+000 0 0 0
-6.381278e-002 -1.300460e-001 -1.132135e+000 0 0 0
-5.311807e-002 -1.371252e-001 -1.139327e+000 0 0 0
-4.148700e-002 -1.434082e-001 -1.146067e+000 0 0 0
-2.927100e-002 -1.485910e-001 -1.151645e+000 0 0 0
-1.487868e-002 -1.527809e-001 -1.157017e+000 0 0 0
-4.104871e-004 -1.555736e-001 -1.159870e+000 0 0 0
1.492483e-002 -1.581027e-001 -1.160233e+000 0 0 0
2.778071e-002 -1.592185e-001 -1.157926e+000 0 0 0
4.062606e-002 -1.600666e-001 -1.154441e+000 0 0 0
5.252892e-002 -1.596826e-001 -1.149171e+000 0 0 0
6.381510e-002 -1.570989e-001 -1.142098e+000 0 0 0
7.342979e-002 -1.546657e-001 -1.134686e+000 0 0 0
8.160458e-002 -1.510787e-001 -1.124682e+000 0 0 0
8.745213e-002 -1.458796e-001 -1.114337e+000 0 0 0
9.038095e-002 -1.397036e-001 -1.103273e+000 0 0 0
8.906500e-002 -1.330673e-001 -1.093096e+000 0 0 0
8.511017e-002 -1.258705e-001 -1.082694e+000 0 0 0
7.670301e-002 -1.188568e-001 -1.071864e+000 0 0 0
6.662770e-002 -1.120569e-001 -1.060957e+000 0 0 0
5.744354e-002 -1.065055e-001 -1.052620e+000 0 0 0
4.589312e-002 -1.031787e-001 -1.047171e+000 0 0 0
3.009648e-002 -9.871991e-002 -1.042492e+000 0 0 0
1.149808e-002 -9.519326e-002 -1.039152e+000 0 0 0
-4.876641e-003 -9.206530e-002 -1.037393e+000 0 0 0
-2.348394e-002 -8.850931e-002 -1.039353e+000 0 0 0
-4.846950e-002 -8.095256e-002 -1.050248e+000 0 0 0
-5.514687e-002 -7.637350e-002 -1.060425e+000 0 0 0
-5.850080e-002 -6.909058e-002 -1.077329e+000 0 0 0
-5.999934e-002 -6.003712e-002 -1.092152e+000 0 0 0
-5.842888e-002 -4.899513e-002 -1.108950e+000 0 0 0
-5.594125e-002 -3.880172e-002 -1.123802e+000 0 0 0
-5.297607e-002 -2.823719e-002 -1.132167e+000 0 0 0
-4.999395e-002 -2.015960e-002 -1.139244e+000 0 0 0
-4.680789e-002 -1.037069e-002 -1.143844e+000 0 0 0
-4.290457e-002 -1.433847e-003 -1.148191e+000 0 0 0
-3.813926e-002 4.645905e-003 -1.152160e+000 0 0 0
-3.020189e-002 5.093748e-003 -1.155498e+000 0 0 0
-1.734076e-002 2.768368e-003 -1.158453e+000 0 0 0
-1.221140e-003 2.135159e-003 -1.160783e+000 0 0 0
1.394034e-002 3.661812e-003 -1.161510e+000 0 0 0
2.459517e-002 8.198071e-003 -1.154221e+000 0 0 0
2.587973e-002 1.591752e-002 -1.147450e+000 0 0 0
1.610770e-002 2.769071e-002 -1.137944e+000 0 0 0
-2.359393e-002 4.975794e-002 -1.119917e+000 0 0 0
-3.314288e-002 4.717009e-002 -1.116573e+000 0 0 0
-5.321947e-002 3.270371e-002 -1.101757e+000 0 0 0
-6.536242e-002 2.557417e-002 -1.086350e+000 0 0 0
-7.510225e-002 2.009775e-002 -1.070167e+000 0 0 0
-9.218273e-002 2.059673e-002 -9.629420e-001 0 0 0
-9.502423e-002 1.535976e-002 -9.518351e-001 0 0 0
-6.767041e-002 -9.546000e-002 -1.056433e+000 0 0 0
-5.143696e-002 -1.071117e-001 -1.079469e+000 0 0 0
-2.159849e-002 -1.232132e-001 -1.114146e+000 0 0 0
-9.607886e-003 -1.294133e-001 -1.125593e+000 0 0 0
3.545230e-003 -1.349836e-001 -1.136164e+000 0 0 0
1.260916e-002 -1.389639e-001 -1.144334e+000 0 0 0
2.181285e-002 -1.430402e-001 -1.151320e+000 0 0 0
2.870591e-002 -1.461012e-001 -1.158021e+000 0 0 0
3.390436e-002 -1.485888e-001 -1.164624e+000 0 0 0
3.943941e-002 -1.509222e-001 -1.172344e+000 0 0 0
4.156596e-002 -1.527845e-001 -1.178411e+000 0 0 0
4.027278e-002 -1.542752e-001 -1.184500e+000 0 0 0
3.382870e-002 -1.546422e-001 -1.190426e+000 0 0 0
2.583521e-002 -1.555199e-001 -1.196206e+000 0 0 0
1.765425e-002 -1.539754e-001 -1.201803e+000 0 0 0
9.579573e-003 -1.526829e-001 -1.206811e+000 0 0 0
1.535827e-003 -1.510160e-001 -1.211451e+000 0 0 0
-4.572935e-003 -1.489419e-001 -1.214609e+000 0 0 0
-1.047606e-002 -1.467938e-001 -1.218320e+000 0 0 0
-1.307431e-002 -1.447482e-001 -1.220359e+000 0 0 0
-1.518766e-002 -1.431193e-001 -1.222116e+000 0 0 0
-1.634795e-002 -1.426731e-001 -1.222192e+000 0 0 0
-1.585938e-002 -1.433229e-001 -1.221169e+000 0 0 0
-1.432230e-002 -1.441742e-001 -1.218597e+000 0 0 0
-1.351747e-002 -1.446757e-001 -1.216195e+000 0 0 0
-1.226559e-002 -1.452998e-001 -1.214560e+000 0 0 0
-1.098916e-002 -1.453763e-001 -1.213377e+000 0 0 0
-1.086362e-002 -1.452589e-001 -1.213418e+000 0 0 0
-1.135956e-002 -1.453801e-001 -1.213110e+000 0 0 0
-1.152703e-002 -1.460094e-001 -1.213069e+000 0 0 0
-1.151873e-002 -1.459980e-001 -1.213116e+000 0 0 0
-1.079256e-001 3.620350e-002 -1.841153e-001 0 255 0
-1.022057e-001 3.469895e-002 -2.337642e-001 255 255 0
-7.034072e-001 -1.946925e-002 -4.050994e-001 255 0 0
-6.646725e-001 -1.518078e-002 -4.364240e-001 255 255 0
4.547328e-001 -4.907428e-001 -1.169459e+000 0 255 0
4.232174e-001 -4.554998e-001 -1.153189e+000 255 255 0
-1.573522e-001 -5.303698e-001 -1.356932e+000 255 0 0
-1.515803e-001 -4.901855e-001 -1.327744e+000 255 255 0
