ply
format ascii 1.0
element face 0
property list uchar int vertex_indices
element vertex 87
property float x
property float y
property float z
property uchar diffuse_red
property uchar diffuse_green
property uchar diffuse_blue
end_header
8.088545e-002 -9.888156e-002 -6.308375e-001 0 0 0
7.340050e-002 -9.268205e-002 -6.036015e-001 0 0 0
7.260003e-002 -8.674847e-002 -5.847074e-001 0 0 0
7.393443e-002 -8.442218e-002 -5.711989e-001 0 0 0
7.694109e-002 -8.135006e-002 -5.608416e-001 0 0 0
7.808175e-002 -7.969758e-002 -5.570973e-001 0 0 0
7.869142e-002 -8.009483e-002 -5.580732e-001 0 0 0
7.940978e-002 -8.070724e-002 -5.614437e-001 0 0 0
7.995277e-002 -8.363926e-002 -5.722680e-001 0 0 0
7.637244e-002 -9.423133e-002 -6.064759e-001 0 0 0
7.206791e-002 -9.086216e-002 -6.125644e-001 0 0 0
7.248710e-002 -9.008056e-002 -6.121157e-001 0 0 0
7.471377e-002 -9.070001e-002 -6.132460e-001 0 0 0
7.372779e-002 -9.047443e-002 -6.134419e-001 0 0 0
8.247655e-002 -7.529675e-002 -6.592581e-001 0 0 0
8.453077e-002 -8.996538e-002 -6.422615e-001 0 0 0
8.451952e-002 -8.933113e-002 -6.340165e-001 0 0 0
8.377782e-002 -8.840906e-002 -6.246589e-001 0 0 0
7.732390e-002 -8.659488e-002 -6.158731e-001 0 0 0
7.033422e-002 -8.222041e-002 -5.998008e-001 0 0 0
6.513116e-002 -7.702583e-002 -5.819695e-001 0 0 0
6.158787e-002 -7.098542e-002 -5.601137e-001 0 0 0
6.422678e-002 -6.386334e-002 -5.407536e-001 0 0 0
6.899374e-002 -5.793656e-002 -5.285098e-001 0 0 0
7.498806e-002 -5.045123e-002 -5.192515e-001 0 0 0
8.031882e-002 -4.274298e-002 -5.128339e-001 0 0 0
8.833883e-002 -3.374059e-002 -5.083060e-001 0 0 0
9.408995e-002 -2.434667e-002 -5.049817e-001 0 0 0
9.975643e-002 -1.704089e-002 -5.051824e-001 0 0 0
1.046131e-001 -1.156224e-002 -5.037018e-001 0 0 0
1.076322e-001 -1.027265e-002 -5.004348e-001 0 0 0
1.085392e-001 -1.387294e-002 -4.968695e-001 0 0 0
1.063326e-001 -1.890425e-002 -4.903584e-001 0 0 0
1.023857e-001 -2.590199e-002 -4.879996e-001 0 0 0
9.711280e-002 -3.097994e-002 -4.830905e-001 0 0 0
9.057009e-002 -3.703916e-002 -4.805673e-001 0 0 0
8.409845e-002 -4.234382e-002 -4.803550e-001 0 0 0
7.592279e-002 -4.707579e-002 -4.833199e-001 0 0 0
6.544620e-002 -4.869697e-002 -4.885787e-001 0 0 0
5.507757e-002 -4.811082e-002 -4.975160e-001 0 0 0
4.630433e-002 -4.578983e-002 -5.069048e-001 0 0 0
4.059415e-002 -4.270469e-002 -5.181074e-001 0 0 0
4.653100e-002 -4.705191e-002 -5.690251e-001 0 0 0
5.145182e-002 -5.626241e-002 -5.700601e-001 0 0 0
5.306802e-002 -6.437288e-002 -5.663026e-001 0 0 0
5.103684e-002 -6.866130e-002 -5.621927e-001 0 0 0
4.607483e-002 -6.939231e-002 -5.583499e-001 0 0 0
4.041433e-002 -6.623934e-002 -5.556956e-001 0 0 0
3.576461e-002 -6.215752e-002 -5.577674e-001 0 0 0
3.022697e-002 -4.779507e-002 -5.846271e-001 0 0 0
3.171579e-002 -4.627581e-002 -5.949658e-001 0 0 0
3.565010e-002 -4.755120e-002 -6.059037e-001 0 0 0
4.114457e-002 -5.246869e-002 -6.147078e-001 0 0 0
4.709029e-002 -5.945489e-002 -6.209899e-001 0 0 0
5.280559e-002 -7.179600e-002 -6.282837e-001 0 0 0
5.479264e-002 -8.245246e-002 -6.313917e-001 0 0 0
4.804525e-002 -9.967873e-002 -6.347304e-001 0 0 0
4.182857e-002 -1.000067e-001 -6.296116e-001 0 0 0
3.744567e-002 -9.396833e-002 -6.233884e-001 0 0 0
5.373755e-002 -7.180593e-002 -6.020634e-001 0 0 0
6.245385e-002 -7.281770e-002 -5.917058e-001 0 0 0
7.088446e-002 -7.250151e-002 -5.754902e-001 0 0 0
7.760557e-002 -6.955032e-002 -5.585080e-001 0 0 0
8.225984e-002 -6.494960e-002 -5.436291e-001 0 0 0
8.597835e-002 -5.641526e-002 -5.311633e-001 0 0 0
8.675399e-002 -4.723333e-002 -5.265653e-001 0 0 0
8.506702e-002 -4.047876e-002 -5.283462e-001 0 0 0
8.312076e-002 -4.053534e-002 -5.323651e-001 0 0 0
8.258949e-002 -4.304016e-002 -5.333184e-001 0 0 0
8.158673e-002 -4.579137e-002 -5.379382e-001 0 0 0
7.906416e-002 -5.118647e-002 -5.477945e-001 0 0 0
7.654984e-002 -6.262981e-002 -5.704229e-001 0 0 0
7.780119e-002 -7.138254e-002 -5.960257e-001 0 0 0
3.672488e-002 -3.806133e-002 -5.277584e-001 0 0 0
3.548235e-002 -3.446148e-002 -5.373989e-001 0 0 0
3.729908e-002 -3.374020e-002 -5.500204e-001 0 0 0
4.104019e-002 -3.864225e-002 -5.612269e-001 0 0 0
3.251856e-002 -5.640904e-002 -5.635189e-001 0 0 0
3.047533e-002 -5.108425e-002 -5.715377e-001 0 0 0
5.244696e-002 -9.292224e-002 -6.341010e-001 0 0 0
3.691416e-002 -8.652292e-002 -6.192199e-001 0 0 0
3.951934e-002 -7.842899e-002 -6.152179e-001 0 0 0
4.452315e-002 -7.294550e-002 -6.110515e-001 0 0 0
1.780786e-003 3.294650e-003 -1.651574e-002 0 255 0
1.667684e-003 2.981787e-003 -6.651463e-002 255 255 0
1.202504e-001 -4.181070e-001 -9.149348e-001 255 0 0
1.176180e-001 -3.809895e-001 -8.815377e-001 255 255 0
