ply
format ascii 1.0
element face 0
property list uchar int vertex_indices
element vertex 91
property float x
property float y
property float z
property uchar diffuse_red
property uchar diffuse_green
property uchar diffuse_blue
end_header
8.805208e-002 -9.155401e-002 -6.173541e-001 0 0 0
7.833500e-002 -8.867398e-002 -5.938810e-001 0 0 0
7.686374e-002 -8.460516e-002 -5.766732e-001 0 0 0
7.788542e-002 -8.320037e-002 -5.632289e-001 0 0 0
8.120869e-002 -8.095641e-002 -5.530740e-001 0 0 0
8.244682e-002 -7.930799e-002 -5.494482e-001 0 0 0
8.321901e-002 -7.955981e-002 -5.501287e-001 0 0 0
8.418365e-002 -7.967523e-002 -5.532237e-001 0 0 0
8.522679e-002 -8.186340e-002 -5.634120e-001 0 0 0
8.228754e-002 -9.005698e-002 -5.963871e-001 0 0 0
7.704000e-002 -8.548361e-002 -6.029121e-001 0 0 0
7.750401e-002 -8.468028e-002 -6.027699e-001 0 0 0
8.023774e-002 -8.519412e-002 -6.035412e-001 0 0 0
7.892090e-002 -8.466798e-002 -6.035882e-001 0 0 0
8.980833e-002 -5.977615e-002 -6.519481e-001 0 0 0
9.285320e-002 -8.012290e-002 -6.321715e-001 0 0 0
9.228732e-002 -8.032291e-002 -6.230475e-001 0 0 0
9.146114e-002 -8.102979e-002 -6.149536e-001 0 0 0
8.314892e-002 -7.953798e-002 -6.057911e-001 0 0 0
7.432698e-002 -7.728590e-002 -5.922278e-001 0 0 0
6.745136e-002 -7.364996e-002 -5.746094e-001 0 0 0
6.235858e-002 -6.944818e-002 -5.539788e-001 0 0 0
6.496625e-002 -6.399291e-002 -5.371707e-001 0 0 0
7.010903e-002 -5.785187e-002 -5.249078e-001 0 0 0
7.675713e-002 -4.973936e-002 -5.158807e-001 0 0 0
8.265474e-002 -4.072375e-002 -5.094927e-001 0 0 0
9.174179e-002 -3.061757e-002 -5.051561e-001 0 0 0
9.903412e-002 -1.923555e-002 -5.032408e-001 0 0 0
1.052453e-001 -9.413256e-003 -5.024813e-001 0 0 0
1.115570e-001 -1.758148e-003 -5.011518e-001 0 0 0
1.153064e-001 -4.616315e-004 -4.981234e-001 0 0 0
1.161306e-001 -5.158052e-003 -4.931453e-001 0 0 0
1.133840e-001 -1.279532e-002 -4.874887e-001 0 0 0
1.084825e-001 -2.153434e-002 -4.835261e-001 0 0 0
1.020396e-001 -2.951946e-002 -4.801234e-001 0 0 0
9.418564e-002 -3.767735e-002 -4.778455e-001 0 0 0
8.639443e-002 -4.464129e-002 -4.776422e-001 0 0 0
7.677707e-002 -5.054906e-002 -4.807682e-001 0 0 0
6.478108e-002 -5.260194e-002 -4.869640e-001 0 0 0
5.221647e-002 -5.124648e-002 -4.962309e-001 0 0 0
4.189140e-002 -4.804674e-002 -5.078893e-001 0 0 0
3.491916e-002 -4.296313e-002 -5.181781e-001 0 0 0
4.306115e-002 -4.022998e-002 -5.680701e-001 0 0 0
5.008726e-002 -5.196229e-002 -5.677505e-001 0 0 0
5.205366e-002 -6.170546e-002 -5.630950e-001 0 0 0
4.950072e-002 -6.729101e-002 -5.576515e-001 0 0 0
4.383983e-002 -6.894668e-002 -5.547220e-001 0 0 0
3.698571e-002 -6.639696e-002 -5.537478e-001 0 0 0
3.081496e-002 -6.099245e-002 -5.563277e-001 0 0 0
2.411778e-002 -4.105006e-002 -5.853946e-001 0 0 0
2.584845e-002 -3.769938e-002 -5.970256e-001 0 0 0
3.100189e-002 -3.759621e-002 -6.074625e-001 0 0 0
3.777044e-002 -4.125468e-002 -6.143536e-001 0 0 0
4.545239e-002 -4.863412e-002 -6.189010e-001 0 0 0
5.376705e-002 -6.269191e-002 -6.239294e-001 0 0 0
5.677017e-002 -7.533810e-002 -6.256222e-001 0 0 0
4.905273e-002 -9.402728e-002 -6.250434e-001 0 0 0
4.184038e-002 -9.619120e-002 -6.213873e-001 0 0 0
3.636835e-002 -9.068940e-002 -6.168037e-001 0 0 0
5.406421e-002 -6.597989e-002 -5.980277e-001 0 0 0
6.451937e-002 -6.783683e-002 -5.854716e-001 0 0 0
7.390047e-002 -6.872757e-002 -5.693767e-001 0 0 0
8.140159e-002 -6.712849e-002 -5.510890e-001 0 0 0
8.651731e-002 -6.306994e-002 -5.369048e-001 0 0 0
9.059019e-002 -5.516235e-002 -5.265040e-001 0 0 0
9.075201e-002 -4.354189e-002 -5.218936e-001 0 0 0
8.902198e-002 -3.594500e-002 -5.243932e-001 0 0 0
8.647328e-002 -3.535695e-002 -5.292326e-001 0 0 0
8.613593e-002 -3.841921e-002 -5.299608e-001 0 0 0
8.502792e-002 -4.122262e-002 -5.343618e-001 0 0 0
8.241463e-002 -4.661121e-002 -5.432539e-001 0 0 0
8.027963e-002 -5.670380e-002 -5.649766e-001 0 0 0
8.275735e-002 -6.407996e-002 -5.879952e-001 0 0 0
3.024919e-002 -3.643449e-002 -5.291390e-001 0 0 0
2.866914e-002 -3.068314e-002 -5.403307e-001 0 0 0
3.096922e-002 -2.783887e-002 -5.517494e-001 0 0 0
3.598537e-002 -3.194738e-002 -5.622943e-001 0 0 0
2.698479e-002 -5.414635e-002 -5.628353e-001 0 0 0
2.450437e-002 -4.704701e-002 -5.733167e-001 0 0 0
5.419303e-002 -8.670474e-002 -6.260978e-001 0 0 0
3.522048e-002 -8.256391e-002 -6.138824e-001 0 0 0
3.765679e-002 -7.309181e-002 -6.108484e-001 0 0 0
4.333901e-002 -6.684955e-002 -6.069792e-001 0 0 0
-2.452869e-002 -5.868833e-002 -3.713189e-002 0 255 0
-2.377738e-002 -5.203070e-002 -8.668097e-002 255 255 0
1.431061e-001 -3.815089e-001 -8.136252e-001 255 0 0
1.381582e-001 -3.405001e-001 -7.854508e-001 255 255 0
3.731429e-001 -9.974878e-002 -1.268517e-001 0 255 0
3.404408e-001 -8.886950e-002 -1.630762e-001 255 255 0
-2.153310e-001 -3.252022e-001 -6.688188e-001 255 0 0
-1.853756e-001 -2.896279e-001 -6.504573e-001 255 255 0
