ply
format ascii 1.0
element face 0
property list uchar int vertex_indices
element vertex 69
property float x
property float y
property float z
property uchar diffuse_red
property uchar diffuse_green
property uchar diffuse_blue
end_header
-8.310080e-003 -1.449577e-001 -9.518971e-001 0 0 0
1.716418e-003 -1.452138e-001 -9.508015e-001 0 0 0
8.579496e-003 -1.437155e-001 -9.497136e-001 0 0 0
1.727195e-002 -1.414095e-001 -9.485103e-001 0 0 0
2.692139e-002 -1.377975e-001 -9.471655e-001 0 0 0
4.143350e-002 -1.309692e-001 -9.442029e-001 0 0 0
4.932870e-002 -1.228460e-001 -9.341395e-001 0 0 0
4.875863e-002 -1.194317e-001 -9.224224e-001 0 0 0
4.750355e-002 -1.156718e-001 -9.092579e-001 0 0 0
4.512892e-002 -1.166303e-001 -8.979064e-001 0 0 0
3.892429e-002 -1.264598e-001 -8.920255e-001 0 0 0
2.899181e-002 -1.397305e-001 -8.862140e-001 0 0 0
2.150771e-002 -1.524278e-001 -8.870557e-001 0 0 0
1.650590e-002 -1.660751e-001 -8.925078e-001 0 0 0
1.544483e-002 -1.761972e-001 -8.999579e-001 0 0 0
1.960469e-002 -1.810400e-001 -9.067943e-001 0 0 0
2.876381e-002 -1.795630e-001 -9.169198e-001 0 0 0
3.898536e-002 -1.755491e-001 -9.320906e-001 0 0 0
4.802187e-002 -1.677017e-001 -9.484255e-001 0 0 0
5.367615e-002 -1.612318e-001 -9.634969e-001 0 0 0
5.565655e-002 -1.552804e-001 -9.795215e-001 0 0 0
5.597673e-002 -1.479671e-001 -9.945748e-001 0 0 0
5.192676e-002 -1.432277e-001 -1.010138e+000 0 0 0
4.533337e-002 -1.413129e-001 -1.023438e+000 0 0 0
3.448719e-002 -1.439489e-001 -1.035032e+000 0 0 0
2.212545e-002 -1.502455e-001 -1.043500e+000 0 0 0
9.339861e-003 -1.604071e-001 -1.048587e+000 0 0 0
-3.667352e-003 -1.712892e-001 -1.049819e+000 0 0 0
-1.885236e-002 -1.834346e-001 -1.046634e+000 0 0 0
-2.967334e-002 -1.928570e-001 -1.041369e+000 0 0 0
-3.960505e-002 -2.011430e-001 -1.035842e+000 0 0 0
-4.988539e-002 -2.077949e-001 -1.028360e+000 0 0 0
-6.402971e-002 -2.144609e-001 -1.020887e+000 0 0 0
-8.024183e-002 -2.155907e-001 -1.012596e+000 0 0 0
-9.887651e-002 -2.144823e-001 -1.004513e+000 0 0 0
-1.148392e-001 -2.116539e-001 -9.966681e-001 0 0 0
-1.309070e-001 -2.061670e-001 -9.869940e-001 0 0 0
-1.387862e-001 -1.995095e-001 -9.743739e-001 0 0 0
-1.406449e-001 -1.919885e-001 -9.600567e-001 0 0 0
-1.330829e-001 -1.866720e-001 -9.433541e-001 0 0 0
-1.190396e-001 -1.870025e-001 -9.279597e-001 0 0 0
-1.041393e-001 -1.875557e-001 -9.154805e-001 0 0 0
-9.325849e-002 -1.890488e-001 -9.099088e-001 0 0 0
-7.890738e-002 -1.884132e-001 -9.053545e-001 0 0 0
-6.308893e-002 -1.935896e-001 -9.068730e-001 0 0 0
-4.215138e-002 -2.009297e-001 -9.131700e-001 0 0 0
-2.090594e-002 -2.049791e-001 -9.207011e-001 0 0 0
-2.164717e-003 -2.059689e-001 -9.294384e-001 0 0 0
1.713609e-002 -2.004769e-001 -9.327911e-001 0 0 0
3.442246e-002 -1.923484e-001 -9.342660e-001 0 0 0
5.305121e-002 -1.773267e-001 -9.297973e-001 0 0 0
6.558496e-002 -1.589632e-001 -9.212187e-001 0 0 0
7.411384e-002 -1.397737e-001 -9.073563e-001 0 0 0
7.608172e-002 -1.216636e-001 -8.898166e-001 0 0 0
7.103105e-002 -1.074372e-001 -8.675293e-001 0 0 0
6.266455e-002 -9.516929e-002 -8.482915e-001 0 0 0
5.366114e-002 -8.619326e-002 -8.323130e-001 0 0 0
4.134221e-002 -8.592990e-002 -8.183919e-001 0 0 0
3.099697e-002 -9.787407e-002 -8.146317e-001 0 0 0
2.293127e-002 -1.119916e-001 -8.162047e-001 0 0 0
2.060211e-002 -1.266473e-001 -8.244226e-001 0 0 0
1.280964e-001 2.986377e-002 -1.094169e-001 0 255 0
1.208767e-001 2.808259e-002 -1.588608e-001 255 255 0
6.897576e-001 -1.016713e-001 -4.179497e-001 255 0 0
6.545819e-001 -9.603149e-002 -4.530333e-001 255 255 0
-4.036281e-001 -4.991406e-001 -1.038788e+000 0 255 0
-3.730102e-001 -4.604201e-001 -1.030834e+000 255 255 0
1.041282e-001 -5.795474e-001 -1.236623e+000 255 0 0
1.035893e-001 -5.359626e-001 -1.212127e+000 255 255 0
