ply
format ascii 1.0
element face 0
property list uchar int vertex_indices
element vertex 65
property float x
property float y
property float z
property uchar diffuse_red
property uchar diffuse_green
property uchar diffuse_blue
end_header
-1.271902e-002 -1.441633e-001 -9.558532e-001 0 0 0
-3.238195e-003 -1.452094e-001 -9.564602e-001 0 0 0
3.906479e-003 -1.437943e-001 -9.563244e-001 0 0 0
1.181113e-002 -1.423044e-001 -9.565068e-001 0 0 0
2.222043e-002 -1.388955e-001 -9.559078e-001 0 0 0
3.502745e-002 -1.331273e-001 -9.554703e-001 0 0 0
4.269143e-002 -1.260292e-001 -9.468462e-001 0 0 0
4.016827e-002 -1.237470e-001 -9.390869e-001 0 0 0
3.705583e-002 -1.203280e-001 -9.255149e-001 0 0 0
3.280360e-002 -1.220864e-001 -9.156470e-001 0 0 0
2.634145e-002 -1.319720e-001 -9.103496e-001 0 0 0
1.449452e-002 -1.461543e-001 -9.046498e-001 0 0 0
7.163442e-003 -1.587381e-001 -9.049292e-001 0 0 0
3.021867e-003 -1.715551e-001 -9.090221e-001 0 0 0
2.907471e-003 -1.813049e-001 -9.169657e-001 0 0 0
8.888223e-003 -1.858337e-001 -9.233198e-001 0 0 0
1.913815e-002 -1.843995e-001 -9.329348e-001 0 0 0
3.273975e-002 -1.787719e-001 -9.470333e-001 0 0 0
4.398727e-002 -1.698737e-001 -9.595038e-001 0 0 0
5.122967e-002 -1.621097e-001 -9.748405e-001 0 0 0
5.528481e-002 -1.556631e-001 -9.858633e-001 0 0 0
5.739023e-002 -1.470539e-001 -9.984786e-001 0 0 0
5.490010e-002 -1.406568e-001 -1.010557e+000 0 0 0
5.066966e-002 -1.375185e-001 -1.018757e+000 0 0 0
4.055971e-002 -1.388601e-001 -1.027234e+000 0 0 0
3.075700e-002 -1.436005e-001 -1.031823e+000 0 0 0
1.786007e-002 -1.530985e-001 -1.034855e+000 0 0 0
6.796292e-003 -1.621148e-001 -1.034429e+000 0 0 0
-8.101954e-003 -1.733965e-001 -1.030333e+000 0 0 0
-1.886071e-002 -1.826296e-001 -1.024093e+000 0 0 0
-3.037935e-002 -1.911274e-001 -1.020422e+000 0 0 0
-4.230894e-002 -1.984781e-001 -1.012857e+000 0 0 0
-5.468732e-002 -2.027774e-001 -1.005739e+000 0 0 0
-7.225682e-002 -2.049118e-001 -9.971436e-001 0 0 0
-9.156295e-002 -2.037176e-001 -9.912806e-001 0 0 0
-1.070818e-001 -2.003025e-001 -9.805664e-001 0 0 0
-1.237976e-001 -1.954052e-001 -9.729069e-001 0 0 0
-1.322217e-001 -1.890017e-001 -9.592867e-001 0 0 0
-1.361915e-001 -1.827733e-001 -9.471767e-001 0 0 0
-1.332776e-001 -1.798943e-001 -9.351204e-001 0 0 0
-1.225733e-001 -1.818474e-001 -9.244141e-001 0 0 0
-1.117875e-001 -1.847914e-001 -9.164331e-001 0 0 0
-1.007366e-001 -1.864431e-001 -9.115885e-001 0 0 0
-8.803561e-002 -1.879685e-001 -9.097558e-001 0 0 0
-7.325415e-002 -1.935318e-001 -9.137865e-001 0 0 0
-5.152545e-002 -2.013568e-001 -9.223324e-001 0 0 0
-3.056517e-002 -2.068276e-001 -9.317969e-001 0 0 0
-9.154115e-003 -2.072741e-001 -9.413703e-001 0 0 0
9.427551e-003 -2.034163e-001 -9.458281e-001 0 0 0
3.029132e-002 -1.946246e-001 -9.486076e-001 0 0 0
4.571590e-002 -1.823573e-001 -9.466001e-001 0 0 0
5.831904e-002 -1.644902e-001 -9.397217e-001 0 0 0
6.497229e-002 -1.472423e-001 -9.288596e-001 0 0 0
6.457382e-002 -1.292358e-001 -9.120272e-001 0 0 0
5.683199e-002 -1.162944e-001 -8.928151e-001 0 0 0
4.464051e-002 -1.036646e-001 -8.728645e-001 0 0 0
3.163986e-002 -9.449770e-002 -8.578926e-001 0 0 0
1.754980e-002 -9.465654e-002 -8.429210e-001 0 0 0
5.597850e-003 -1.075284e-001 -8.386549e-001 0 0 0
-1.963666e-003 -1.217086e-001 -8.400576e-001 0 0 0
-3.503297e-003 -1.365710e-001 -8.476992e-001 0 0 0
-3.478242e-003 -2.584600e-003 -2.480341e-002 0 255 0
-3.303909e-003 -2.421008e-003 -7.480284e-002 255 255 0
9.014801e-001 -1.881598e-001 -4.264899e-001 255 0 0
8.616752e-001 -1.792737e-001 -4.554140e-001 255 255 0
