ply
format ascii 1.0
element face 0
property list uchar int vertex_indices
element vertex 83
property float x
property float y
property float z
property uchar diffuse_red
property uchar diffuse_green
property uchar diffuse_blue
end_header
-1.417047e-001 -7.698638e-002 -1.036955e+000 0 0 0
-1.415122e-001 -7.664724e-002 -1.037627e+000 0 0 0
-1.349120e-001 -7.585337e-002 -1.039071e+000 0 0 0
-1.284624e-001 -7.695109e-002 -1.038357e+000 0 0 0
-1.222560e-001 -7.828874e-002 -1.036564e+000 0 0 0
-1.102009e-001 -7.456397e-002 -1.033207e+000 0 0 0
-1.001498e-001 -6.874179e-002 -1.026733e+000 0 0 0
-9.396257e-002 -6.413801e-002 -1.021052e+000 0 0 0
-8.650771e-002 -5.605650e-002 -1.013808e+000 0 0 0
-8.211889e-002 -4.886438e-002 -1.009189e+000 0 0 0
-7.804421e-002 -4.027980e-002 -1.004532e+000 0 0 0
-7.442480e-002 -2.918015e-002 -9.996510e-001 0 0 0
-7.217043e-002 -2.055830e-002 -9.928060e-001 0 0 0
-7.022480e-002 -1.658259e-002 -9.847620e-001 0 0 0
-6.961748e-002 -2.214585e-002 -9.760824e-001 0 0 0
-6.846152e-002 -3.470444e-002 -9.731716e-001 0 0 0
-6.807812e-002 -5.370293e-002 -9.702355e-001 0 0 0
-6.954970e-002 -7.670275e-002 -9.696821e-001 0 0 0
-7.072759e-002 -9.551240e-002 -9.735705e-001 0 0 0
-7.172940e-002 -1.031365e-001 -9.850416e-001 0 0 0
-7.162706e-002 -1.141926e-001 -1.005335e+000 0 0 0
-7.307446e-002 -1.129074e-001 -1.030550e+000 0 0 0
-7.558666e-002 -1.053225e-001 -1.052108e+000 0 0 0
-8.182965e-002 -9.452933e-002 -1.063804e+000 0 0 0
-8.459749e-002 -8.183273e-002 -1.071341e+000 0 0 0
-8.624124e-002 -7.076652e-002 -1.075010e+000 0 0 0
-9.097138e-002 -6.238329e-002 -1.080685e+000 0 0 0
-1.044167e-001 -6.204458e-002 -1.087327e+000 0 0 0
-1.170033e-001 -7.538579e-002 -1.086808e+000 0 0 0
-1.340758e-001 -9.322095e-002 -1.084584e+000 0 0 0
-1.410340e-001 -1.145239e-001 -1.077992e+000 0 0 0
-1.418047e-001 -1.308500e-001 -1.078416e+000 0 0 0
-1.359587e-001 -1.436781e-001 -1.083051e+000 0 0 0
-1.259402e-001 -1.476265e-001 -1.085648e+000 0 0 0
-1.173593e-001 -1.446421e-001 -1.090598e+000 0 0 0
-1.060867e-001 -1.345492e-001 -1.090956e+000 0 0 0
-9.751839e-002 -1.191506e-001 -1.090391e+000 0 0 0
-9.454949e-002 -1.011651e-001 -1.085645e+000 0 0 0
-9.496091e-002 -8.463590e-002 -1.077008e+000 0 0 0
-9.528295e-002 -7.382641e-002 -1.067607e+000 0 0 0
-9.186892e-002 -6.216910e-002 -1.051090e+000 0 0 0
-8.708538e-002 -5.003036e-002 -1.036520e+000 0 0 0
-8.097947e-002 -3.931192e-002 -1.013760e+000 0 0 0
-7.603614e-002 -3.395071e-002 -9.906247e-001 0 0 0
-7.200873e-002 -3.673628e-002 -9.697574e-001 0 0 0
-7.177864e-002 -4.665001e-002 -9.556673e-001 0 0 0
-7.170803e-002 -6.050342e-002 -9.497862e-001 0 0 0
-7.120598e-002 -7.934217e-002 -9.568619e-001 0 0 0
-7.641650e-002 -9.614644e-002 -9.710747e-001 0 0 0
-8.852625e-002 -1.070135e-001 -9.855500e-001 0 0 0
-1.035947e-001 -1.100748e-001 -9.867580e-001 0 0 0
-1.175562e-001 -1.111172e-001 -9.750975e-001 0 0 0
-1.243042e-001 -1.077292e-001 -9.594574e-001 0 0 0
-1.264159e-001 -9.402362e-002 -9.374741e-001 0 0 0
-1.258581e-001 -6.884661e-002 -9.161958e-001 0 0 0
-1.272327e-001 -4.661305e-002 -9.033966e-001 0 0 0
-1.255454e-001 -1.699940e-002 -8.919328e-001 0 0 0
-1.212394e-001 -9.221644e-004 -8.899630e-001 0 0 0
-1.150555e-001 1.159462e-002 -8.939761e-001 0 0 0
-1.076822e-001 1.661053e-002 -9.009116e-001 0 0 0
-9.776916e-002 1.418463e-002 -9.093358e-001 0 0 0
-8.882093e-002 3.215844e-003 -9.172513e-001 0 0 0
-7.606567e-002 -1.536341e-002 -9.329050e-001 0 0 0
-6.344216e-002 -3.435421e-002 -9.552968e-001 0 0 0
-5.639112e-002 -4.752772e-002 -9.741856e-001 0 0 0
-5.201134e-002 -6.368581e-002 -9.993276e-001 0 0 0
-5.509803e-002 -7.996982e-002 -1.020166e+000 0 0 0
-6.409519e-002 -9.436645e-002 -1.032857e+000 0 0 0
-7.943067e-002 -1.046156e-001 -1.040323e+000 0 0 0
-9.854966e-002 -1.095415e-001 -1.046832e+000 0 0 0
-1.147497e-001 -1.101783e-001 -1.049288e+000 0 0 0
-1.342861e-001 -1.066854e-001 -1.046151e+000 0 0 0
-1.433962e-001 -1.006159e-001 -1.042346e+000 0 0 0
-1.445343e-001 -9.632057e-002 -1.041757e+000 0 0 0
-1.394218e-001 -9.172516e-002 -1.043589e+000 0 0 0
-1.322408e-001 -8.755772e-002 -1.046734e+000 0 0 0
-1.295668e-001 -8.520043e-002 -1.049647e+000 0 0 0
-1.281530e-001 -8.443788e-002 -1.049527e+000 0 0 0
-1.276209e-001 -8.484431e-002 -1.049045e+000 0 0 0
-2.203823e-002 6.040451e-003 1.856964e-002 0 255 0
-2.090559e-002 5.726899e-003 -3.141655e-002 255 255 0
8.183960e-001 -2.791691e-001 -5.359658e-001 255 0 0
7.783475e-001 -2.671093e-001 -5.633643e-001 255 255 0
