ply
format ascii 1.0
element face 0
property list uchar int vertex_indices
element vertex 87
property float x
property float y
property float z
property uchar diffuse_red
property uchar diffuse_green
property uchar diffuse_blue
end_header
-1.414980e-001 -7.346549e-002 -1.043508e+000 0 0 0
-1.411584e-001 -7.323206e-002 -1.043740e+000 0 0 0
-1.350398e-001 -7.175530e-002 -1.045479e+000 0 0 0
-1.282338e-001 -7.255669e-002 -1.043033e+000 0 0 0
-1.201781e-001 -7.337415e-002 -1.039268e+000 0 0 0
-1.085863e-001 -6.947799e-002 -1.033439e+000 0 0 0
-9.646829e-002 -6.281152e-002 -1.024057e+000 0 0 0
-8.842417e-002 -5.762191e-002 -1.015656e+000 0 0 0
-7.999638e-002 -4.936672e-002 -1.005973e+000 0 0 0
-7.526656e-002 -4.205213e-002 -9.999935e-001 0 0 0
-7.085764e-002 -3.330466e-002 -9.942312e-001 0 0 0
-6.693087e-002 -2.222306e-002 -9.878956e-001 0 0 0
-6.417081e-002 -1.407311e-002 -9.809019e-001 0 0 0
-6.089583e-002 -1.027727e-002 -9.694563e-001 0 0 0
-5.933716e-002 -1.572051e-002 -9.606342e-001 0 0 0
-5.695287e-002 -2.796753e-002 -9.557269e-001 0 0 0
-5.499181e-002 -4.690384e-002 -9.513009e-001 0 0 0
-5.524795e-002 -6.924379e-002 -9.502053e-001 0 0 0
-5.678200e-002 -8.631138e-002 -9.546861e-001 0 0 0
-5.694208e-002 -9.612697e-002 -9.662089e-001 0 0 0
-6.105217e-002 -1.059339e-001 -9.931772e-001 0 0 0
-6.490404e-002 -1.048388e-001 -1.019840e+000 0 0 0
-7.062482e-002 -9.820487e-002 -1.045303e+000 0 0 0
-7.938467e-002 -8.800130e-002 -1.063411e+000 0 0 0
-8.435437e-002 -7.526293e-002 -1.074384e+000 0 0 0
-8.709471e-002 -6.437883e-002 -1.079787e+000 0 0 0
-9.547216e-002 -5.476207e-002 -1.090802e+000 0 0 0
-1.089658e-001 -5.538616e-002 -1.100616e+000 0 0 0
-1.249291e-001 -6.984246e-002 -1.105538e+000 0 0 0
-1.392692e-001 -8.906046e-002 -1.103054e+000 0 0 0
-1.466029e-001 -1.119144e-001 -1.096295e+000 0 0 0
-1.463489e-001 -1.287747e-001 -1.093617e+000 0 0 0
-1.399390e-001 -1.423007e-001 -1.096897e+000 0 0 0
-1.316836e-001 -1.468878e-001 -1.100793e+000 0 0 0
-1.207188e-001 -1.428886e-001 -1.102838e+000 0 0 0
-1.093498e-001 -1.318786e-001 -1.102037e+000 0 0 0
-9.954334e-002 -1.155427e-001 -1.100437e+000 0 0 0
-9.786516e-002 -9.590973e-002 -1.096399e+000 0 0 0
-9.768160e-002 -7.827499e-002 -1.086772e+000 0 0 0
-9.610597e-002 -6.778458e-002 -1.073222e+000 0 0 0
-9.084228e-002 -5.529769e-002 -1.052940e+000 0 0 0
-8.426935e-002 -4.316909e-002 -1.033902e+000 0 0 0
-7.562253e-002 -3.224119e-002 -1.006079e+000 0 0 0
-6.747218e-002 -2.736199e-002 -9.800126e-001 0 0 0
-6.177648e-002 -2.940740e-002 -9.574535e-001 0 0 0
-5.745496e-002 -4.025055e-002 -9.352550e-001 0 0 0
-5.580725e-002 -5.371420e-002 -9.291993e-001 0 0 0
-5.567756e-002 -7.089284e-002 -9.355884e-001 0 0 0
-6.180374e-002 -8.805540e-002 -9.537585e-001 0 0 0
-7.637994e-002 -9.958477e-002 -9.706542e-001 0 0 0
-9.000023e-002 -1.033565e-001 -9.744275e-001 0 0 0
-1.031435e-001 -1.051118e-001 -9.647020e-001 0 0 0
-1.082997e-001 -1.025232e-001 -9.469548e-001 0 0 0
-1.075037e-001 -8.898930e-002 -9.226432e-001 0 0 0
-1.051908e-001 -6.468717e-002 -8.995291e-001 0 0 0
-1.056076e-001 -4.356209e-002 -8.864117e-001 0 0 0
-1.028800e-001 -1.635635e-002 -8.746840e-001 0 0 0
-9.985462e-002 -1.625908e-004 -8.721989e-001 0 0 0
-9.496889e-002 1.197686e-002 -8.759726e-001 0 0 0
-8.913597e-002 1.732220e-002 -8.831668e-001 0 0 0
-8.067303e-002 1.615909e-002 -8.901275e-001 0 0 0
-7.110015e-002 5.845630e-003 -8.983828e-001 0 0 0
-6.099035e-002 -1.110257e-002 -9.141968e-001 0 0 0
-5.089748e-002 -2.716823e-002 -9.345429e-001 0 0 0
-4.474806e-002 -4.001097e-002 -9.579267e-001 0 0 0
-4.271818e-002 -5.417414e-002 -9.825288e-001 0 0 0
-4.651349e-002 -7.071451e-002 -1.005190e+000 0 0 0
-5.694888e-002 -8.583324e-002 -1.022596e+000 0 0 0
-7.373485e-002 -9.725897e-002 -1.035098e+000 0 0 0
-9.351059e-002 -1.040254e-001 -1.044649e+000 0 0 0
-1.136620e-001 -1.067165e-001 -1.051480e+000 0 0 0
-1.319222e-001 -1.035578e-001 -1.051053e+000 0 0 0
-1.420657e-001 -9.796956e-002 -1.048715e+000 0 0 0
-1.434091e-001 -9.357652e-002 -1.048200e+000 0 0 0
-1.395662e-001 -8.856963e-002 -1.050763e+000 0 0 0
-1.332438e-001 -8.390153e-002 -1.054068e+000 0 0 0
-1.298458e-001 -8.110613e-002 -1.056182e+000 0 0 0
-1.287320e-001 -8.024398e-002 -1.056761e+000 0 0 0
-1.283315e-001 -8.049225e-002 -1.056278e+000 0 0 0
5.279301e-002 -1.678396e-002 -2.311768e-001 0 255 0
4.978086e-002 -1.505959e-002 -2.810562e-001 255 255 0
6.231266e-001 -1.724428e-001 -4.945336e-001 255 0 0
5.875558e-001 -1.637501e-001 -5.285800e-001 255 255 0
-6.583740e-001 -5.225585e-001 -1.071671e+000 0 255 0
-6.236589e-001 -4.872613e-001 -1.064672e+000 255 255 0
-7.766991e-002 -6.221770e-001 -1.336725e+000 255 0 0
-7.400860e-002 -5.797758e-001 -1.310481e+000 255 255 0
