ply
format ascii 1.0
element face 0
property list uchar int vertex_indices
element vertex 271
property float x
property float y
property float z
property uchar diffuse_red
property uchar diffuse_green
property uchar diffuse_blue
end_header
3.249632e-002 -1.629634e-001 -1.060572e+000 0 0 0
3.247544e-002 -1.648534e-001 -1.060491e+000 0 0 0
3.157176e-002 -1.677915e-001 -1.059864e+000 0 0 0
3.101060e-002 -1.716631e-001 -1.058785e+000 0 0 0
3.014189e-002 -1.750429e-001 -1.058572e+000 0 0 0
2.674823e-002 -1.789929e-001 -1.057937e+000 0 0 0
2.102979e-002 -1.843824e-001 -1.058111e+000 0 0 0
1.523428e-002 -1.897984e-001 -1.057667e+000 0 0 0
6.789266e-003 -1.956312e-001 -1.056526e+000 0 0 0
-1.345325e-003 -1.992670e-001 -1.053168e+000 0 0 0
-1.159689e-002 -2.022289e-001 -1.046957e+000 0 0 0
-2.055182e-002 -2.029927e-001 -1.039096e+000 0 0 0
-2.702675e-002 -2.030664e-001 -1.032076e+000 0 0 0
-3.035462e-002 -2.029588e-001 -1.022007e+000 0 0 0
-3.327682e-002 -2.038604e-001 -1.014906e+000 0 0 0
-3.624442e-002 -2.060560e-001 -1.010961e+000 0 0 0
-3.972692e-002 -2.074788e-001 -1.011575e+000 0 0 0
-4.128229e-002 -2.123224e-001 -1.012156e+000 0 0 0
-4.377177e-002 -2.181339e-001 -1.010422e+000 0 0 0
-4.557387e-002 -2.270093e-001 -1.011232e+000 0 0 0
-4.845203e-002 -2.323406e-001 -1.004958e+000 0 0 0
-5.216015e-002 -2.328015e-001 -9.972256e-001 0 0 0
-5.496822e-002 -2.301234e-001 -9.907745e-001 0 0 0
-5.873674e-002 -2.252614e-001 -9.833016e-001 0 0 0
-6.454960e-002 -2.199283e-001 -9.759695e-001 0 0 0
-7.134911e-002 -2.145297e-001 -9.664648e-001 0 0 0
-7.908498e-002 -2.111561e-001 -9.546726e-001 0 0 0
-8.545071e-002 -2.102867e-001 -9.431311e-001 0 0 0
-8.621524e-002 -2.130950e-001 -9.276500e-001 0 0 0
-7.616228e-002 -2.214169e-001 -9.121354e-001 0 0 0
-5.621113e-002 -2.304831e-001 -8.984940e-001 0 0 0
-3.414636e-002 -2.357351e-001 -8.896491e-001 0 0 0
-1.179853e-002 -2.398032e-001 -8.794949e-001 0 0 0
6.099999e-003 -2.446524e-001 -8.707575e-001 0 0 0
2.079593e-002 -2.518840e-001 -8.712052e-001 0 0 0
3.333225e-002 -2.571471e-001 -8.709530e-001 0 0 0
3.292413e-002 -2.611931e-001 -8.800644e-001 0 0 0
3.107241e-002 -2.598471e-001 -8.764656e-001 0 0 0
-1.358664e-001 -1.770458e-001 -7.574871e-001 0 0 0
-1.562183e-001 -1.559711e-001 -7.464845e-001 0 0 0
-1.755059e-001 -1.394891e-001 -7.363385e-001 0 0 0
-1.911867e-001 -1.321123e-001 -7.240190e-001 0 0 0
-1.823997e-001 -1.815940e-001 -7.745982e-001 0 0 0
-1.752339e-001 -1.783725e-001 -7.837851e-001 0 0 0
-1.677603e-001 -1.759205e-001 -7.922860e-001 0 0 0
-1.598186e-001 -1.749379e-001 -7.976048e-001 0 0 0
-1.553035e-001 -1.722165e-001 -8.010275e-001 0 0 0
-1.538982e-001 -1.646736e-001 -8.090687e-001 0 0 0
-1.581048e-001 -1.534997e-001 -8.192924e-001 0 0 0
-1.600199e-001 -1.431041e-001 -8.307230e-001 0 0 0
-1.630752e-001 -1.358224e-001 -8.398218e-001 0 0 0
-1.631907e-001 -1.308786e-001 -8.499717e-001 0 0 0
-1.591905e-001 -1.298997e-001 -8.596206e-001 0 0 0
-1.518443e-001 -1.326552e-001 -8.713281e-001 0 0 0
-1.398727e-001 -1.405215e-001 -8.815008e-001 0 0 0
-1.260486e-001 -1.505109e-001 -8.875617e-001 0 0 0
-1.065701e-001 -1.627287e-001 -8.926533e-001 0 0 0
-8.473848e-002 -1.761478e-001 -8.897805e-001 0 0 0
-6.048302e-002 -1.904664e-001 -8.865961e-001 0 0 0
-4.325764e-002 -2.015545e-001 -8.773373e-001 0 0 0
-2.513453e-002 -2.099824e-001 -8.695656e-001 0 0 0
-1.219247e-002 -2.153282e-001 -8.663895e-001 0 0 0
-5.726678e-003 -2.180660e-001 -8.632640e-001 0 0 0
-1.600526e-003 -2.182715e-001 -8.620705e-001 0 0 0
4.849577e-003 -2.204765e-001 -8.653930e-001 0 0 0
1.773560e-002 -2.206810e-001 -8.684954e-001 0 0 0
3.464220e-002 -2.208515e-001 -8.664589e-001 0 0 0
5.547065e-002 -2.198181e-001 -8.650184e-001 0 0 0
7.011113e-002 -2.162482e-001 -8.599370e-001 0 0 0
7.995615e-002 -2.129070e-001 -8.555104e-001 0 0 0
8.543315e-002 -2.091776e-001 -8.481216e-001 0 0 0
8.873833e-002 -2.039479e-001 -8.404882e-001 0 0 0
9.140817e-002 -1.978446e-001 -8.292062e-001 0 0 0
9.097567e-002 -1.899490e-001 -8.166944e-001 0 0 0
8.787113e-002 -1.811439e-001 -8.018726e-001 0 0 0
8.263189e-002 -1.720641e-001 -7.890096e-001 0 0 0
7.692717e-002 -1.621404e-001 -7.733594e-001 0 0 0
7.324760e-002 -1.519264e-001 -7.574425e-001 0 0 0
6.706158e-002 -1.390746e-001 -7.400408e-001 0 0 0
5.880027e-002 -1.252351e-001 -7.198498e-001 0 0 0
4.601253e-002 -1.101879e-001 -7.004757e-001 0 0 0
3.200112e-002 -9.690240e-002 -6.823422e-001 0 0 0
1.226252e-002 -8.092789e-002 -6.614117e-001 0 0 0
-1.027867e-002 -6.640767e-002 -6.457357e-001 0 0 0
-3.096865e-002 -5.430003e-002 -6.380183e-001 0 0 0
-2.027407e-001 1.593816e-002 -6.272512e-001 0 0 0
-2.482494e-001 -2.636282e-002 -6.770637e-001 0 0 0
-2.532041e-001 -3.983102e-002 -6.946953e-001 0 0 0
-2.517890e-001 -5.046139e-002 -7.094111e-001 0 0 0
-2.501840e-001 -5.957043e-002 -7.238638e-001 0 0 0
-2.482368e-001 -6.704072e-002 -7.354667e-001 0 0 0
-2.439988e-001 -7.539237e-002 -7.469096e-001 0 0 0
-2.406995e-001 -8.160772e-002 -7.569545e-001 0 0 0
-2.371146e-001 -8.688592e-002 -7.673709e-001 0 0 0
-2.332341e-001 -8.935879e-002 -7.748046e-001 0 0 0
-2.306700e-001 -8.899669e-002 -7.795823e-001 0 0 0
-2.281917e-001 -8.833474e-002 -7.847793e-001 0 0 0
-2.258448e-001 -8.868765e-002 -7.897492e-001 0 0 0
-2.242671e-001 -8.926992e-002 -7.938485e-001 0 0 0
-2.221670e-001 -8.641109e-002 -7.956470e-001 0 0 0
-2.180910e-001 -8.173750e-002 -7.963424e-001 0 0 0
-2.131678e-001 -7.529392e-002 -7.970949e-001 0 0 0
-2.022425e-001 -6.784576e-002 -7.996052e-001 0 0 0
-1.859259e-001 -5.972058e-002 -8.026411e-001 0 0 0
-1.293286e-001 -3.822985e-002 -8.080195e-001 0 0 0
-1.117098e-001 -3.440388e-002 -8.095407e-001 0 0 0
-9.829223e-002 -3.176972e-002 -8.111728e-001 0 0 0
-8.725404e-002 -2.688244e-002 -8.151151e-001 0 0 0
-7.743659e-002 -2.023712e-002 -8.216989e-001 0 0 0
-7.187565e-002 -1.450866e-002 -8.281753e-001 0 0 0
-6.718301e-002 -9.272383e-003 -8.336048e-001 0 0 0
-6.347966e-002 -4.355938e-003 -8.357416e-001 0 0 0
1.891992e-002 4.163450e-002 -8.669275e-001 0 0 0
2.750518e-002 8.120000e-003 -8.631020e-001 0 0 0
2.932346e-002 -3.044214e-002 -8.675396e-001 0 0 0
2.735141e-002 -6.595756e-002 -8.807052e-001 0 0 0
1.904832e-002 -9.045786e-002 -8.972759e-001 0 0 0
6.948366e-003 -1.079480e-001 -9.183270e-001 0 0 0
-3.747353e-002 -1.412571e-001 -9.579183e-001 0 0 0
-5.592421e-002 -1.513575e-001 -9.642082e-001 0 0 0
-7.142681e-002 -1.595883e-001 -9.660712e-001 0 0 0
-1.052340e-001 -1.629347e-001 -9.557599e-001 0 0 0
-1.068859e-001 -1.635875e-001 -9.460591e-001 0 0 0
-1.071694e-001 -1.668634e-001 -9.466750e-001 0 0 0
-1.071468e-001 -1.692967e-001 -9.463559e-001 0 0 0
-1.141259e-001 -1.712845e-001 -9.496851e-001 0 0 0
-1.219598e-001 -1.743825e-001 -9.578002e-001 0 0 0
-1.310069e-001 -1.807034e-001 -9.592179e-001 0 0 0
-1.371549e-001 -1.883013e-001 -9.588878e-001 0 0 0
-1.386001e-001 -1.940749e-001 -9.605332e-001 0 0 0
-1.393459e-001 -2.003872e-001 -9.664720e-001 0 0 0
-1.399159e-001 -2.041326e-001 -9.719996e-001 0 0 0
-1.387856e-001 -2.088230e-001 -9.758119e-001 0 0 0
-1.364801e-001 -2.149218e-001 -9.810071e-001 0 0 0
-1.339673e-001 -2.202666e-001 -9.864734e-001 0 0 0
-1.323120e-001 -2.245431e-001 -9.925981e-001 0 0 0
-1.277838e-001 -2.314769e-001 -1.000480e+000 0 0 0
-1.259360e-001 -2.394260e-001 -1.010168e+000 0 0 0
-1.258893e-001 -2.492350e-001 -1.022553e+000 0 0 0
-1.240886e-001 -2.580671e-001 -1.034936e+000 0 0 0
-1.219733e-001 -2.662389e-001 -1.050470e+000 0 0 0
-1.153066e-001 -2.762687e-001 -1.063005e+000 0 0 0
-1.058805e-001 -2.910884e-001 -1.071615e+000 0 0 0
-9.128655e-002 -3.073538e-001 -1.078864e+000 0 0 0
-7.366647e-002 -3.216850e-001 -1.085467e+000 0 0 0
-5.897364e-002 -3.306743e-001 -1.089847e+000 0 0 0
-3.337074e-002 -3.395119e-001 -1.096822e+000 0 0 0
-1.526221e-002 -3.441302e-001 -1.099839e+000 0 0 0
1.870385e-003 -3.476026e-001 -1.106034e+000 0 0 0
1.289429e-002 -3.493738e-001 -1.110165e+000 0 0 0
2.656052e-002 -3.501729e-001 -1.113663e+000 0 0 0
9.788255e-002 -3.046326e-001 -1.020144e+000 0 0 0
8.857831e-002 -2.946487e-001 -1.008860e+000 0 0 0
7.885898e-002 -2.851189e-001 -9.991618e-001 0 0 0
6.691195e-002 -2.748166e-001 -9.903732e-001 0 0 0
5.723690e-002 -2.634806e-001 -9.837411e-001 0 0 0
4.961619e-002 -2.518334e-001 -9.811970e-001 0 0 0
4.371246e-002 -2.376268e-001 -9.783899e-001 0 0 0
3.948466e-002 -2.259705e-001 -9.775711e-001 0 0 0
3.546980e-002 -2.112502e-001 -9.765286e-001 0 0 0
3.182043e-002 -1.991043e-001 -9.758570e-001 0 0 0
2.783923e-002 -1.863797e-001 -9.767875e-001 0 0 0
2.138138e-002 -1.749631e-001 -9.777054e-001 0 0 0
1.316040e-002 -1.669093e-001 -9.806160e-001 0 0 0
7.636072e-005 -1.618738e-001 -9.829634e-001 0 0 0
-6.388412e-002 -1.617497e-001 -9.942634e-001 0 0 0
-7.919479e-002 -1.648628e-001 -9.935306e-001 0 0 0
-8.902736e-002 -1.683168e-001 -9.943350e-001 0 0 0
-9.771926e-002 -1.678351e-001 -9.893114e-001 0 0 0
-1.054576e-001 -1.641629e-001 -9.781714e-001 0 0 0
-1.094017e-001 -1.598528e-001 -9.669353e-001 0 0 0
-1.105903e-001 -1.552485e-001 -9.561445e-001 0 0 0
-1.105732e-001 -1.529232e-001 -9.456835e-001 0 0 0
-1.096099e-001 -1.518353e-001 -9.369120e-001 0 0 0
-1.073081e-001 -1.531472e-001 -9.278373e-001 0 0 0
-1.014267e-001 -1.531229e-001 -9.202924e-001 0 0 0
-9.080002e-002 -1.508250e-001 -9.144059e-001 0 0 0
-7.980142e-002 -1.468886e-001 -9.078808e-001 0 0 0
-7.050529e-002 -1.427929e-001 -9.010841e-001 0 0 0
-6.183497e-002 -1.405265e-001 -8.977219e-001 0 0 0
-5.752817e-002 -1.384933e-001 -8.927251e-001 0 0 0
-5.876772e-002 -1.384654e-001 -8.888453e-001 0 0 0
-6.264808e-002 -1.390773e-001 -8.856767e-001 0 0 0
-7.256345e-002 -1.391886e-001 -8.826324e-001 0 0 0
-8.294487e-002 -1.353136e-001 -8.779240e-001 0 0 0
-9.586939e-002 -1.270225e-001 -8.712206e-001 0 0 0
-1.555861e-001 -7.099493e-002 -8.830785e-001 0 0 0
-1.829088e-001 -6.982264e-002 -9.181395e-001 0 0 0
-1.931513e-001 -9.586211e-002 -9.180222e-001 0 0 0
-1.961792e-001 -1.199857e-001 -9.157902e-001 0 0 0
-1.933988e-001 -1.396401e-001 -9.116380e-001 0 0 0
-1.885463e-001 -1.541100e-001 -9.094469e-001 0 0 0
-1.836128e-001 -1.578070e-001 -9.053796e-001 0 0 0
-1.732299e-001 -1.540045e-001 -8.948385e-001 0 0 0
-1.566252e-001 -1.428764e-001 -8.769952e-001 0 0 0
-1.361003e-001 -1.307085e-001 -8.564798e-001 0 0 0
-1.111882e-001 -1.131754e-001 -8.305452e-001 0 0 0
-8.976165e-002 -9.649852e-002 -8.068326e-001 0 0 0
-6.304435e-002 -7.966827e-002 -7.780234e-001 0 0 0
-3.235783e-002 -7.643778e-002 -7.546322e-001 0 0 0
9.245325e-003 -8.991533e-002 -7.358834e-001 0 0 0
4.262975e-002 -1.026423e-001 -7.267808e-001 0 0 0
6.739527e-002 -1.073152e-001 -7.183512e-001 0 0 0
8.832507e-002 -1.098630e-001 -7.182055e-001 0 0 0
1.093716e-001 -1.133412e-001 -7.262349e-001 0 0 0
1.282547e-001 -1.186015e-001 -7.367402e-001 0 0 0
1.408878e-001 -1.246294e-001 -7.436165e-001 0 0 0
1.478092e-001 -1.335068e-001 -7.524912e-001 0 0 0
1.496100e-001 -1.420424e-001 -7.613724e-001 0 0 0
1.473640e-001 -1.500491e-001 -7.708014e-001 0 0 0
1.430711e-001 -1.564625e-001 -7.783946e-001 0 0 0
1.385407e-001 -1.640438e-001 -7.897272e-001 0 0 0
1.324268e-001 -1.701691e-001 -7.990998e-001 0 0 0
1.243007e-001 -1.761595e-001 -8.116791e-001 0 0 0
1.058228e-001 -1.825256e-001 -8.206307e-001 0 0 0
9.001745e-002 -1.894045e-001 -8.349643e-001 0 0 0
6.589703e-002 -1.924363e-001 -8.446014e-001 0 0 0
4.408930e-002 -1.938342e-001 -8.597553e-001 0 0 0
2.060301e-002 -1.914770e-001 -8.657002e-001 0 0 0
3.877665e-003 -1.890195e-001 -8.670669e-001 0 0 0
-1.270439e-002 -1.848284e-001 -8.656162e-001 0 0 0
-2.521531e-002 -1.773120e-001 -8.664971e-001 0 0 0
-3.486755e-002 -1.679277e-001 -8.682516e-001 0 0 0
-4.042303e-002 -1.595535e-001 -8.738496e-001 0 0 0
-3.787610e-002 -1.547248e-001 -8.902607e-001 0 0 0
-3.851842e-002 -1.592163e-001 -9.032155e-001 0 0 0
-3.745916e-002 -1.633402e-001 -9.145586e-001 0 0 0
-3.823176e-002 -1.680736e-001 -9.305682e-001 0 0 0
-3.740158e-002 -1.740455e-001 -9.431184e-001 0 0 0
-3.690807e-002 -1.803641e-001 -9.516791e-001 0 0 0
-3.776746e-002 -1.861856e-001 -9.593652e-001 0 0 0
-3.775846e-002 -1.927483e-001 -9.664504e-001 0 0 0
-3.277266e-002 -2.008619e-001 -9.747832e-001 0 0 0
-2.119146e-002 -2.105286e-001 -9.819216e-001 0 0 0
-1.447480e-002 -2.176168e-001 -9.896266e-001 0 0 0
-9.256237e-003 -2.213787e-001 -9.910402e-001 0 0 0
9.687759e-003 -2.507587e-001 -1.020337e+000 0 0 0
1.008335e-002 -2.545928e-001 -1.026552e+000 0 0 0
8.679844e-003 -2.566284e-001 -1.031275e+000 0 0 0
1.053208e-002 -2.594014e-001 -1.036398e+000 0 0 0
8.324264e-003 -2.628873e-001 -1.044152e+000 0 0 0
9.974018e-003 -2.640177e-001 -1.047865e+000 0 0 0
1.145999e-002 -2.640974e-001 -1.052230e+000 0 0 0
1.813253e-002 -2.622740e-001 -1.057170e+000 0 0 0
2.601842e-002 -2.601488e-001 -1.062535e+000 0 0 0
3.617482e-002 -2.544656e-001 -1.070838e+000 0 0 0
4.562198e-002 -2.510669e-001 -1.079006e+000 0 0 0
4.928675e-002 -2.482270e-001 -1.083869e+000 0 0 0
4.836894e-002 -2.429635e-001 -1.086327e+000 0 0 0
4.183608e-002 -2.332518e-001 -1.089255e+000 0 0 0
3.801610e-002 -2.186038e-001 -1.092955e+000 0 0 0
3.670425e-002 -2.028497e-001 -1.094745e+000 0 0 0
3.995756e-002 -1.865716e-001 -1.094184e+000 0 0 0
4.216708e-002 -1.737771e-001 -1.087220e+000 0 0 0
4.665046e-002 -1.644124e-001 -1.075602e+000 0 0 0
5.183458e-002 -1.599121e-001 -1.063843e+000 0 0 0
5.961917e-002 -1.603761e-001 -1.056155e+000 0 0 0
6.196568e-002 -1.589947e-001 -1.051152e+000 0 0 0
6.392004e-002 -1.588845e-001 -1.048592e+000 0 0 0
6.995977e-002 -1.581922e-001 -1.046575e+000 0 0 0
7.636019e-002 -1.589003e-001 -1.045230e+000 0 0 0
7.863608e-002 -1.580878e-001 -1.042075e+000 0 0 0
8.051620e-002 -1.576514e-001 -1.041594e+000 0 0 0
8.203465e-002 -1.563498e-001 -1.041103e+000 0 0 0
8.351340e-002 -1.549439e-001 -1.042117e+000 0 0 0
8.669335e-002 -1.527698e-001 -1.039027e+000 0 0 0
1.006451e-001 -1.504757e-001 -1.019905e+000 0 0 0
5.253523e-003 -8.683249e-003 -5.668176e-002 0 255 0
5.002996e-003 -8.079627e-003 -1.066775e-001 255 255 0
-9.132575e-001 -1.779397e-001 -4.007193e-001 255 0 0
-8.751520e-001 -1.699649e-001 -4.320940e-001 255 255 0
