ply
format ascii 1.0
element face 0
property list uchar int vertex_indices
element vertex 275
property float x
property float y
property float z
property uchar diffuse_red
property uchar diffuse_green
property uchar diffuse_blue
end_header
4.302084e-002 -1.769200e-001 -1.079590e+000 0 0 0
4.298151e-002 -1.788410e-001 -1.079375e+000 0 0 0
4.192830e-002 -1.817334e-001 -1.078289e+000 0 0 0
4.117314e-002 -1.855430e-001 -1.076645e+000 0 0 0
4.021473e-002 -1.889225e-001 -1.076055e+000 0 0 0
3.653833e-002 -1.927060e-001 -1.074532e+000 0 0 0
3.053638e-002 -1.979117e-001 -1.073582e+000 0 0 0
2.439956e-002 -2.030537e-001 -1.071868e+000 0 0 0
1.545302e-002 -2.083741e-001 -1.068905e+000 0 0 0
6.093440e-003 -2.117982e-001 -1.063978e+000 0 0 0
-4.017186e-003 -2.133637e-001 -1.056042e+000 0 0 0
-1.385924e-002 -2.127565e-001 -1.044913e+000 0 0 0
-2.192739e-002 -2.113759e-001 -1.034323e+000 0 0 0
-2.557351e-002 -2.101040e-001 -1.023759e+000 0 0 0
-2.968875e-002 -2.098286e-001 -1.013720e+000 0 0 0
-3.259230e-002 -2.112708e-001 -1.009355e+000 0 0 0
-3.575193e-002 -2.129244e-001 -1.009960e+000 0 0 0
-3.753891e-002 -2.172185e-001 -1.009922e+000 0 0 0
-3.986590e-002 -2.226779e-001 -1.007589e+000 0 0 0
-4.148543e-002 -2.308581e-001 -1.007700e+000 0 0 0
-4.493495e-002 -2.351187e-001 -9.991713e-001 0 0 0
-4.898994e-002 -2.345348e-001 -9.908269e-001 0 0 0
-5.225198e-002 -2.308777e-001 -9.824898e-001 0 0 0
-5.691102e-002 -2.251198e-001 -9.739144e-001 0 0 0
-6.256279e-002 -2.191884e-001 -9.662584e-001 0 0 0
-7.051657e-002 -2.122648e-001 -9.538646e-001 0 0 0
-7.768565e-002 -2.076446e-001 -9.417436e-001 0 0 0
-8.503616e-002 -2.050900e-001 -9.278426e-001 0 0 0
-8.637306e-002 -2.063218e-001 -9.111286e-001 0 0 0
-7.845705e-002 -2.118765e-001 -8.964378e-001 0 0 0
-6.133155e-002 -2.200629e-001 -8.846095e-001 0 0 0
-4.195108e-002 -2.247506e-001 -8.751880e-001 0 0 0
-2.202483e-002 -2.287127e-001 -8.667274e-001 0 0 0
-5.974001e-003 -2.333660e-001 -8.604843e-001 0 0 0
8.976376e-003 -2.413572e-001 -8.613875e-001 0 0 0
2.080729e-002 -2.474472e-001 -8.623343e-001 0 0 0
2.090571e-002 -2.519982e-001 -8.709755e-001 0 0 0
1.875486e-002 -2.498275e-001 -8.661949e-001 0 0 0
-1.374238e-001 -1.574135e-001 -7.486824e-001 0 0 0
-1.539816e-001 -1.386992e-001 -7.389349e-001 0 0 0
-1.699364e-001 -1.239467e-001 -7.301069e-001 0 0 0
-1.827398e-001 -1.169020e-001 -7.193976e-001 0 0 0
-1.749159e-001 -1.611284e-001 -7.615478e-001 0 0 0
-1.687350e-001 -1.593203e-001 -7.701394e-001 0 0 0
-1.627983e-001 -1.582268e-001 -7.778197e-001 0 0 0
-1.560734e-001 -1.580486e-001 -7.829263e-001 0 0 0
-1.521620e-001 -1.560784e-001 -7.864352e-001 0 0 0
-1.507764e-001 -1.501377e-001 -7.945699e-001 0 0 0
-1.540950e-001 -1.411400e-001 -8.043509e-001 0 0 0
-1.556598e-001 -1.331422e-001 -8.141930e-001 0 0 0
-1.580298e-001 -1.272586e-001 -8.227052e-001 0 0 0
-1.580433e-001 -1.236274e-001 -8.324786e-001 0 0 0
-1.545151e-001 -1.234184e-001 -8.426509e-001 0 0 0
-1.473935e-001 -1.266540e-001 -8.541789e-001 0 0 0
-1.371954e-001 -1.345096e-001 -8.642871e-001 0 0 0
-1.241319e-001 -1.443764e-001 -8.716275e-001 0 0 0
-1.076746e-001 -1.561603e-001 -8.762598e-001 0 0 0
-8.796894e-002 -1.686767e-001 -8.756762e-001 0 0 0
-6.657596e-002 -1.822954e-001 -8.720747e-001 0 0 0
-5.094912e-002 -1.923103e-001 -8.653799e-001 0 0 0
-3.503505e-002 -2.001315e-001 -8.583246e-001 0 0 0
-2.317001e-002 -2.052986e-001 -8.551643e-001 0 0 0
-1.734805e-002 -2.078907e-001 -8.532838e-001 0 0 0
-1.351270e-002 -2.081893e-001 -8.518149e-001 0 0 0
-7.463955e-003 -2.107975e-001 -8.555075e-001 0 0 0
4.513608e-003 -2.118652e-001 -8.591487e-001 0 0 0
2.023654e-002 -2.127198e-001 -8.589398e-001 0 0 0
3.985230e-002 -2.126066e-001 -8.582232e-001 0 0 0
5.411183e-002 -2.094835e-001 -8.550802e-001 0 0 0
6.286402e-002 -2.069414e-001 -8.519875e-001 0 0 0
6.757610e-002 -2.029116e-001 -8.447540e-001 0 0 0
6.910125e-002 -1.974405e-001 -8.366180e-001 0 0 0
7.068937e-002 -1.908982e-001 -8.264929e-001 0 0 0
6.876941e-002 -1.827495e-001 -8.152641e-001 0 0 0
6.372456e-002 -1.731550e-001 -8.010493e-001 0 0 0
5.726055e-002 -1.638904e-001 -7.884750e-001 0 0 0
4.981810e-002 -1.534044e-001 -7.735171e-001 0 0 0
4.400495e-002 -1.427370e-001 -7.576728e-001 0 0 0
3.650011e-002 -1.302350e-001 -7.418400e-001 0 0 0
2.645718e-002 -1.165847e-001 -7.239782e-001 0 0 0
1.353887e-002 -1.024137e-001 -7.069855e-001 0 0 0
-1.065821e-003 -8.982669e-002 -6.906303e-001 0 0 0
-1.927334e-002 -7.525616e-002 -6.729543e-001 0 0 0
-3.944442e-002 -6.233628e-002 -6.596199e-001 0 0 0
-5.704124e-002 -5.212902e-002 -6.525778e-001 0 0 0
-1.934822e-001 4.744291e-003 -6.438950e-001 0 0 0
-2.281988e-001 -2.940040e-002 -6.817374e-001 0 0 0
-2.318264e-001 -4.031517e-002 -6.955858e-001 0 0 0
-2.311028e-001 -4.915397e-002 -7.078811e-001 0 0 0
-2.297131e-001 -5.692430e-002 -7.192694e-001 0 0 0
-2.282961e-001 -6.332777e-002 -7.290198e-001 0 0 0
-2.249275e-001 -7.050081e-002 -7.384397e-001 0 0 0
-2.224541e-001 -7.607605e-002 -7.470797e-001 0 0 0
-2.195223e-001 -8.076220e-002 -7.558700e-001 0 0 0
-2.165268e-001 -8.315914e-002 -7.623444e-001 0 0 0
-2.144821e-001 -8.300963e-002 -7.668982e-001 0 0 0
-2.126083e-001 -8.279791e-002 -7.714453e-001 0 0 0
-2.105789e-001 -8.319031e-002 -7.760490e-001 0 0 0
-2.093773e-001 -8.396514e-002 -7.795996e-001 0 0 0
-2.078210e-001 -8.162752e-002 -7.814191e-001 0 0 0
-2.044666e-001 -7.780204e-002 -7.825984e-001 0 0 0
-2.002188e-001 -7.226667e-002 -7.837663e-001 0 0 0
-1.914924e-001 -6.631807e-002 -7.868931e-001 0 0 0
-1.784779e-001 -5.973758e-002 -7.901420e-001 0 0 0
-1.302784e-001 -4.159926e-002 -7.997226e-001 0 0 0
-1.161014e-001 -3.860293e-002 -8.019346e-001 0 0 0
-1.037637e-001 -3.614929e-002 -8.045539e-001 0 0 0
-9.404363e-002 -3.204255e-002 -8.093457e-001 0 0 0
-8.560906e-002 -2.644770e-002 -8.158710e-001 0 0 0
-8.037307e-002 -2.152438e-002 -8.225040e-001 0 0 0
-7.582082e-002 -1.684810e-002 -8.284147e-001 0 0 0
-7.217748e-002 -1.234988e-002 -8.312712e-001 0 0 0
5.456993e-003 3.019672e-002 -8.687563e-001 0 0 0
1.348690e-002 -9.723538e-004 -8.646657e-001 0 0 0
1.513669e-002 -3.748954e-002 -8.673416e-001 0 0 0
1.514434e-002 -7.020620e-002 -8.794769e-001 0 0 0
9.859121e-003 -9.394366e-002 -8.975314e-001 0 0 0
1.493697e-004 -1.111587e-001 -9.161744e-001 0 0 0
-3.967433e-002 -1.443336e-001 -9.530259e-001 0 0 0
-5.672027e-002 -1.537171e-001 -9.572634e-001 0 0 0
-7.002429e-002 -1.606719e-001 -9.576705e-001 0 0 0
-1.026981e-001 -1.617895e-001 -9.427274e-001 0 0 0
-1.046076e-001 -1.612709e-001 -9.322647e-001 0 0 0
-1.048881e-001 -1.645763e-001 -9.322163e-001 0 0 0
-1.049316e-001 -1.666240e-001 -9.319250e-001 0 0 0
-1.106597e-001 -1.686735e-001 -9.355834e-001 0 0 0
-1.180187e-001 -1.720428e-001 -9.425254e-001 0 0 0
-1.257161e-001 -1.773934e-001 -9.426779e-001 0 0 0
-1.312699e-001 -1.843552e-001 -9.418606e-001 0 0 0
-1.327009e-001 -1.898277e-001 -9.426654e-001 0 0 0
-1.330713e-001 -1.961522e-001 -9.488866e-001 0 0 0
-1.334002e-001 -2.001935e-001 -9.540097e-001 0 0 0
-1.322380e-001 -2.050088e-001 -9.578524e-001 0 0 0
-1.300097e-001 -2.111656e-001 -9.629445e-001 0 0 0
-1.274533e-001 -2.168938e-001 -9.690798e-001 0 0 0
-1.254435e-001 -2.217489e-001 -9.759921e-001 0 0 0
-1.208766e-001 -2.293502e-001 -9.844881e-001 0 0 0
-1.187504e-001 -2.386493e-001 -9.956719e-001 0 0 0
-1.180665e-001 -2.489444e-001 -1.008299e+000 0 0 0
-1.158976e-001 -2.598100e-001 -1.023206e+000 0 0 0
-1.127610e-001 -2.695759e-001 -1.039734e+000 0 0 0
-1.062681e-001 -2.823498e-001 -1.055631e+000 0 0 0
-9.588254e-002 -2.984651e-001 -1.065881e+000 0 0 0
-8.267498e-002 -3.163933e-001 -1.074491e+000 0 0 0
-6.523200e-002 -3.331605e-001 -1.084073e+000 0 0 0
-4.781441e-002 -3.456782e-001 -1.093890e+000 0 0 0
-2.226236e-002 -3.571575e-001 -1.103001e+000 0 0 0
-2.231632e-003 -3.649315e-001 -1.111168e+000 0 0 0
1.435102e-002 -3.710579e-001 -1.119884e+000 0 0 0
2.697363e-002 -3.759149e-001 -1.128062e+000 0 0 0
4.308636e-002 -3.797005e-001 -1.134647e+000 0 0 0
1.073362e-001 -3.209698e-001 -1.032927e+000 0 0 0
9.439037e-002 -3.069725e-001 -1.017925e+000 0 0 0
8.274673e-002 -2.946885e-001 -1.005109e+000 0 0 0
6.845259e-002 -2.817697e-001 -9.938310e-001 0 0 0
5.910502e-002 -2.699570e-001 -9.869030e-001 0 0 0
4.991038e-002 -2.568356e-001 -9.825941e-001 0 0 0
4.389439e-002 -2.432300e-001 -9.797922e-001 0 0 0
3.908329e-002 -2.305055e-001 -9.789844e-001 0 0 0
3.530866e-002 -2.169117e-001 -9.781784e-001 0 0 0
3.145630e-002 -2.039329e-001 -9.781639e-001 0 0 0
2.731769e-002 -1.924500e-001 -9.783881e-001 0 0 0
2.128407e-002 -1.806502e-001 -9.802533e-001 0 0 0
1.347467e-002 -1.729235e-001 -9.823865e-001 0 0 0
1.277684e-003 -1.676904e-001 -9.850918e-001 0 0 0
-6.084921e-002 -1.655868e-001 -9.891668e-001 0 0 0
-7.539309e-002 -1.682719e-001 -9.874396e-001 0 0 0
-8.550677e-002 -1.708525e-001 -9.856747e-001 0 0 0
-9.323385e-002 -1.697360e-001 -9.798694e-001 0 0 0
-1.013230e-001 -1.649330e-001 -9.671241e-001 0 0 0
-1.058947e-001 -1.595052e-001 -9.536092e-001 0 0 0
-1.077116e-001 -1.542155e-001 -9.418489e-001 0 0 0
-1.080572e-001 -1.514301e-001 -9.322963e-001 0 0 0
-1.076156e-001 -1.497801e-001 -9.232915e-001 0 0 0
-1.061769e-001 -1.503075e-001 -9.136990e-001 0 0 0
-1.008258e-001 -1.498229e-001 -9.059879e-001 0 0 0
-9.203953e-002 -1.475692e-001 -9.001293e-001 0 0 0
-8.231342e-002 -1.438094e-001 -8.949289e-001 0 0 0
-7.418340e-002 -1.400419e-001 -8.898553e-001 0 0 0
-6.650366e-002 -1.378756e-001 -8.864316e-001 0 0 0
-6.271580e-002 -1.360288e-001 -8.823353e-001 0 0 0
-6.407960e-002 -1.357130e-001 -8.784073e-001 0 0 0
-6.781942e-002 -1.359148e-001 -8.748951e-001 0 0 0
-7.674071e-002 -1.355479e-001 -8.709509e-001 0 0 0
-8.715576e-002 -1.313515e-001 -8.655240e-001 0 0 0
-9.845950e-002 -1.231915e-001 -8.585070e-001 0 0 0
-1.511763e-001 -7.247406e-002 -8.686802e-001 0 0 0
-1.738830e-001 -7.232345e-002 -9.007904e-001 0 0 0
-1.827832e-001 -9.581629e-002 -8.988803e-001 0 0 0
-1.851525e-001 -1.168843e-001 -8.954553e-001 0 0 0
-1.828439e-001 -1.346812e-001 -8.895966e-001 0 0 0
-1.783443e-001 -1.471818e-001 -8.874292e-001 0 0 0
-1.739170e-001 -1.501710e-001 -8.833849e-001 0 0 0
-1.656554e-001 -1.464548e-001 -8.751246e-001 0 0 0
-1.519909e-001 -1.358427e-001 -8.593348e-001 0 0 0
-1.348850e-001 -1.243036e-001 -8.416315e-001 0 0 0
-1.143673e-001 -1.080432e-001 -8.193040e-001 0 0 0
-9.701838e-002 -9.277978e-002 -7.989264e-001 0 0 0
-7.544597e-002 -7.738236e-002 -7.745228e-001 0 0 0
-4.905999e-002 -7.418835e-002 -7.530361e-001 0 0 0
-1.469392e-002 -8.606283e-002 -7.386221e-001 0 0 0
1.259369e-002 -9.700167e-002 -7.293849e-001 0 0 0
3.392688e-002 -1.011792e-001 -7.230041e-001 0 0 0
5.412913e-002 -1.038815e-001 -7.241702e-001 0 0 0
7.406810e-002 -1.080096e-001 -7.328174e-001 0 0 0
9.204875e-002 -1.135238e-001 -7.421524e-001 0 0 0
1.060168e-001 -1.199687e-001 -7.498370e-001 0 0 0
1.132176e-001 -1.284883e-001 -7.576084e-001 0 0 0
1.163758e-001 -1.369231e-001 -7.658587e-001 0 0 0
1.155845e-001 -1.448087e-001 -7.743544e-001 0 0 0
1.134430e-001 -1.512141e-001 -7.821975e-001 0 0 0
1.100481e-001 -1.586542e-001 -7.919011e-001 0 0 0
1.055154e-001 -1.648073e-001 -8.004019e-001 0 0 0
9.795126e-002 -1.706944e-001 -8.103337e-001 0 0 0
8.406461e-002 -1.773160e-001 -8.209741e-001 0 0 0
6.940570e-002 -1.834418e-001 -8.317004e-001 0 0 0
4.930179e-002 -1.869155e-001 -8.428423e-001 0 0 0
2.785657e-002 -1.881236e-001 -8.543270e-001 0 0 0
8.042912e-003 -1.855396e-001 -8.585115e-001 0 0 0
-8.730654e-003 -1.823544e-001 -8.588970e-001 0 0 0
-2.296214e-002 -1.777104e-001 -8.571740e-001 0 0 0
-3.551786e-002 -1.702058e-001 -8.564845e-001 0 0 0
-4.366361e-002 -1.617784e-001 -8.577618e-001 0 0 0
-4.841699e-002 -1.543328e-001 -8.633468e-001 0 0 0
-4.495117e-002 -1.512451e-001 -8.803152e-001 0 0 0
-4.432110e-002 -1.565314e-001 -8.941831e-001 0 0 0
-4.244318e-002 -1.613322e-001 -9.064310e-001 0 0 0
-4.184482e-002 -1.670424e-001 -9.226697e-001 0 0 0
-4.027952e-002 -1.734415e-001 -9.349164e-001 0 0 0
-3.887598e-002 -1.805113e-001 -9.448042e-001 0 0 0
-3.897847e-002 -1.865014e-001 -9.519883e-001 0 0 0
-3.838278e-002 -1.932586e-001 -9.591408e-001 0 0 0
-3.226983e-002 -2.023697e-001 -9.689578e-001 0 0 0
-2.111058e-002 -2.128995e-001 -9.777121e-001 0 0 0
-1.387262e-002 -2.208313e-001 -9.863085e-001 0 0 0
-8.486558e-003 -2.250151e-001 -9.884784e-001 0 0 0
1.421963e-002 -2.593064e-001 -1.023836e+000 0 0 0
1.515770e-002 -2.641847e-001 -1.031046e+000 0 0 0
1.460828e-002 -2.664191e-001 -1.035749e+000 0 0 0
1.710280e-002 -2.703489e-001 -1.042721e+000 0 0 0
1.569723e-002 -2.745245e-001 -1.051334e+000 0 0 0
1.765537e-002 -2.762381e-001 -1.055549e+000 0 0 0
2.005928e-002 -2.773658e-001 -1.061337e+000 0 0 0
2.674430e-002 -2.765839e-001 -1.067449e+000 0 0 0
3.696789e-002 -2.762295e-001 -1.077188e+000 0 0 0
4.763773e-002 -2.725764e-001 -1.087639e+000 0 0 0
5.927275e-002 -2.710324e-001 -1.100125e+000 0 0 0
6.402233e-002 -2.686329e-001 -1.106457e+000 0 0 0
6.342723e-002 -2.634758e-001 -1.109768e+000 0 0 0
5.684060e-002 -2.533631e-001 -1.113051e+000 0 0 0
5.330747e-002 -2.384119e-001 -1.118068e+000 0 0 0
5.220853e-002 -2.221772e-001 -1.121110e+000 0 0 0
5.571943e-002 -2.053380e-001 -1.121905e+000 0 0 0
5.713245e-002 -1.913403e-001 -1.114092e+000 0 0 0
6.029562e-002 -1.806095e-001 -1.100576e+000 0 0 0
6.414236e-002 -1.750165e-001 -1.086849e+000 0 0 0
7.134326e-002 -1.750923e-001 -1.078435e+000 0 0 0
7.310074e-002 -1.732904e-001 -1.072662e+000 0 0 0
7.480528e-002 -1.730180e-001 -1.069797e+000 0 0 0
8.099116e-002 -1.723929e-001 -1.068268e+000 0 0 0
8.767391e-002 -1.732855e-001 -1.067544e+000 0 0 0
8.962602e-002 -1.722521e-001 -1.064039e+000 0 0 0
9.158235e-002 -1.718456e-001 -1.063759e+000 0 0 0
9.315521e-002 -1.705347e-001 -1.063463e+000 0 0 0
9.493693e-002 -1.692577e-001 -1.065027e+000 0 0 0
9.788460e-002 -1.668788e-001 -1.061826e+000 0 0 0
1.087923e-001 -1.630981e-001 -1.038354e+000 0 0 0
-6.364002e-002 -1.127275e-002 -2.829876e-001 0 255 0
-5.909489e-002 -1.092407e-002 -3.327794e-001 255 255 0
-6.255604e-001 -1.200544e-001 -4.895538e-001 255 0 0
-5.923128e-001 -1.136931e-001 -5.263523e-001 255 255 0
4.549238e-001 -5.585653e-001 -1.138056e+000 0 255 0
4.242105e-001 -5.201820e-001 -1.128923e+000 255 255 0
-1.273617e-001 -6.354262e-001 -1.317862e+000 255 0 0
-1.247613e-001 -5.916264e-001 -1.293886e+000 255 255 0
