ply
format ascii 1.0
element face 0
property list uchar int vertex_indices
element vertex 166
property float x
property float y
property float z
property uchar diffuse_red
property uchar diffuse_green
property uchar diffuse_blue
end_header
-2.432309e-002 -5.264460e-003 -9.967749e-001 0 0 0
-2.475442e-002 -7.183733e-003 -9.958646e-001 0 0 0
-2.498789e-002 -1.231803e-002 -9.956736e-001 0 0 0
-2.425056e-002 -2.068882e-002 -9.949741e-001 0 0 0
-2.201731e-002 -3.402275e-002 -9.939983e-001 0 0 0
-2.030291e-002 -4.537108e-002 -9.917635e-001 0 0 0
-1.332322e-002 -5.811461e-002 -9.886014e-001 0 0 0
-5.495559e-003 -6.798540e-002 -9.863058e-001 0 0 0
2.386497e-003 -7.429119e-002 -9.845860e-001 0 0 0
9.308539e-003 -7.953500e-002 -9.836647e-001 0 0 0
1.851903e-002 -8.587614e-002 -9.810425e-001 0 0 0
2.580882e-002 -9.249842e-002 -9.786693e-001 0 0 0
3.269697e-002 -9.918587e-002 -9.767235e-001 0 0 0
3.838816e-002 -1.055085e-001 -9.772083e-001 0 0 0
4.241473e-002 -1.110823e-001 -9.798800e-001 0 0 0
4.350853e-002 -1.150213e-001 -9.831926e-001 0 0 0
4.183916e-002 -1.189647e-001 -9.888334e-001 0 0 0
3.746821e-002 -1.209603e-001 -9.954787e-001 0 0 0
2.981940e-002 -1.209169e-001 -1.003834e+000 0 0 0
2.202958e-002 -1.192406e-001 -1.011686e+000 0 0 0
1.093780e-002 -1.154445e-001 -1.020209e+000 0 0 0
9.756507e-005 -1.112085e-001 -1.024745e+000 0 0 0
-1.260694e-002 -1.103955e-001 -1.031362e+000 0 0 0
-2.553498e-002 -1.096101e-001 -1.033548e+000 0 0 0
-4.459614e-002 -1.104539e-001 -1.028743e+000 0 0 0
-5.724596e-002 -1.121051e-001 -1.021298e+000 0 0 0
-7.507269e-002 -1.131281e-001 -1.007433e+000 0 0 0
-8.733901e-002 -1.145926e-001 -9.908573e-001 0 0 0
-1.024842e-001 -1.157228e-001 -9.666297e-001 0 0 0
-1.140073e-001 -1.161656e-001 -9.469313e-001 0 0 0
-1.218637e-001 -1.154844e-001 -9.307278e-001 0 0 0
-1.278575e-001 -1.120709e-001 -9.152996e-001 0 0 0
-1.329701e-001 -1.069623e-001 -9.001134e-001 0 0 0
-1.355084e-001 -9.915024e-002 -8.831599e-001 0 0 0
-1.371954e-001 -9.313418e-002 -8.687005e-001 0 0 0
-1.388369e-001 -8.686756e-002 -8.534063e-001 0 0 0
-1.417123e-001 -7.975716e-002 -8.341395e-001 0 0 0
-1.436324e-001 -7.582849e-002 -8.201010e-001 0 0 0
-1.456653e-001 -7.214619e-002 -8.088338e-001 0 0 0
-1.458983e-001 -6.683774e-002 -7.989859e-001 0 0 0
-1.446009e-001 -6.000390e-002 -7.868324e-001 0 0 0
-1.423908e-001 -5.427327e-002 -7.776096e-001 0 0 0
-1.402462e-001 -4.848445e-002 -7.657450e-001 0 0 0
-1.371626e-001 -4.274428e-002 -7.520183e-001 0 0 0
-1.345198e-001 -3.888686e-002 -7.418140e-001 0 0 0
-1.307563e-001 -3.474457e-002 -7.322345e-001 0 0 0
-1.282963e-001 -3.155470e-002 -7.264179e-001 0 0 0
-1.243295e-001 -2.535535e-002 -7.195545e-001 0 0 0
-1.207340e-001 -2.189525e-002 -7.162159e-001 0 0 0
-1.161954e-001 -1.889105e-002 -7.138896e-001 0 0 0
-1.117436e-001 -1.594223e-002 -7.123057e-001 0 0 0
-1.058275e-001 -1.578725e-002 -7.107599e-001 0 0 0
-1.013813e-001 -1.875102e-002 -7.129401e-001 0 0 0
-9.404802e-002 -2.081390e-002 -7.222967e-001 0 0 0
-8.746526e-002 -2.072189e-002 -7.322565e-001 0 0 0
-8.126764e-002 -2.207557e-002 -7.429791e-001 0 0 0
-7.735935e-002 -2.519310e-002 -7.531706e-001 0 0 0
-7.565987e-002 -2.927297e-002 -7.629939e-001 0 0 0
-7.709565e-002 -3.348733e-002 -7.704406e-001 0 0 0
-7.860412e-002 -3.592009e-002 -7.750992e-001 0 0 0
-8.109967e-002 -3.720898e-002 -7.793611e-001 0 0 0
-8.437938e-002 -3.766469e-002 -7.841622e-001 0 0 0
-8.655011e-002 -3.699458e-002 -7.879903e-001 0 0 0
-8.828596e-002 -3.444182e-002 -7.922393e-001 0 0 0
-8.832890e-002 -3.026193e-002 -7.947127e-001 0 0 0
-8.734724e-002 -2.481567e-002 -7.981231e-001 0 0 0
-8.646589e-002 -1.992616e-002 -8.011369e-001 0 0 0
-8.478992e-002 -1.597235e-002 -8.027646e-001 0 0 0
-5.169720e-002 -6.063245e-003 -8.790716e-001 0 0 0
-5.176534e-002 -8.308026e-003 -8.911555e-001 0 0 0
-6.367730e-002 -1.832837e-002 -9.264468e-001 0 0 0
-6.985605e-002 -2.319640e-002 -9.330898e-001 0 0 0
-7.818641e-002 -2.902678e-002 -9.387733e-001 0 0 0
-9.021842e-002 -3.262919e-002 -9.390317e-001 0 0 0
-1.021560e-001 -3.750256e-002 -9.390162e-001 0 0 0
-1.121744e-001 -3.991956e-002 -9.387472e-001 0 0 0
-1.241038e-001 -4.092832e-002 -9.376569e-001 0 0 0
-1.383510e-001 -4.049042e-002 -9.351114e-001 0 0 0
-1.479854e-001 -4.026022e-002 -9.320500e-001 0 0 0
-1.569923e-001 -3.995964e-002 -9.255411e-001 0 0 0
-1.636558e-001 -3.881482e-002 -9.184778e-001 0 0 0
-1.684221e-001 -3.623885e-002 -9.086382e-001 0 0 0
-1.687736e-001 -3.380981e-002 -8.992987e-001 0 0 0
-1.653425e-001 -2.930250e-002 -8.888728e-001 0 0 0
-1.141917e-001 -1.792810e-002 -8.676909e-001 0 0 0
-1.011965e-001 -1.846100e-002 -8.666052e-001 0 0 0
-8.984626e-002 -1.868343e-002 -8.624165e-001 0 0 0
-8.025373e-002 -1.833468e-002 -8.569673e-001 0 0 0
-7.145322e-002 -1.597396e-002 -8.521057e-001 0 0 0
-6.646944e-002 -1.085553e-002 -8.495499e-001 0 0 0
-6.346588e-002 -4.323134e-003 -8.493986e-001 0 0 0
-6.074099e-002 3.769050e-003 -8.501639e-001 0 0 0
-5.710917e-002 1.144969e-002 -8.522694e-001 0 0 0
-5.553518e-002 2.227319e-002 -8.532452e-001 0 0 0
-5.356412e-002 3.043838e-002 -8.537595e-001 0 0 0
-4.962364e-002 3.894225e-002 -8.536119e-001 0 0 0
-4.564310e-002 4.307724e-002 -8.525813e-001 0 0 0
-3.855022e-002 4.924791e-002 -8.494336e-001 0 0 0
-3.269500e-002 5.380843e-002 -8.475215e-001 0 0 0
-2.743643e-002 5.555103e-002 -8.490645e-001 0 0 0
-2.415707e-002 5.315048e-002 -8.553198e-001 0 0 0
-2.258018e-002 4.667713e-002 -8.631929e-001 0 0 0
-2.100233e-002 3.599428e-002 -8.757377e-001 0 0 0
-1.999401e-002 2.774125e-002 -8.843484e-001 0 0 0
-1.767382e-002 1.539120e-002 -8.975918e-001 0 0 0
-1.694446e-002 6.161265e-003 -9.080183e-001 0 0 0
-1.493279e-002 -4.133185e-003 -9.189552e-001 0 0 0
-1.365709e-002 -1.473707e-002 -9.304108e-001 0 0 0
-1.116913e-002 -2.309734e-002 -9.402079e-001 0 0 0
-7.283468e-003 -3.209839e-002 -9.525685e-001 0 0 0
-4.401899e-003 -3.680101e-002 -9.613970e-001 0 0 0
-7.816404e-004 -4.150593e-002 -9.695892e-001 0 0 0
3.125862e-003 -4.668833e-002 -9.770554e-001 0 0 0
6.645501e-003 -5.279417e-002 -9.832084e-001 0 0 0
1.088944e-002 -6.243444e-002 -9.902696e-001 0 0 0
1.540115e-002 -7.134497e-002 -9.939148e-001 0 0 0
2.114297e-002 -8.185875e-002 -9.952213e-001 0 0 0
3.335463e-002 -9.496671e-002 -9.934399e-001 0 0 0
4.362366e-002 -1.026634e-001 -9.915805e-001 0 0 0
5.381491e-002 -1.073725e-001 -9.884512e-001 0 0 0
6.335654e-002 -1.106070e-001 -9.857049e-001 0 0 0
7.346993e-002 -1.137156e-001 -9.825822e-001 0 0 0
8.196797e-002 -1.162938e-001 -9.800211e-001 0 0 0
9.220711e-002 -1.200186e-001 -9.781969e-001 0 0 0
1.003763e-001 -1.197430e-001 -9.722415e-001 0 0 0
1.127102e-001 -1.228124e-001 -9.656025e-001 0 0 0
1.226145e-001 -1.221476e-001 -9.602421e-001 0 0 0
1.355379e-001 -1.203137e-001 -9.538616e-001 0 0 0
1.459248e-001 -1.201662e-001 -9.534631e-001 0 0 0
1.548252e-001 -1.202847e-001 -9.543160e-001 0 0 0
1.598530e-001 -1.227592e-001 -9.582321e-001 0 0 0
1.609874e-001 -1.270134e-001 -9.640157e-001 0 0 0
1.606273e-001 -1.318574e-001 -9.725002e-001 0 0 0
1.415743e-001 -1.436815e-001 -1.016187e+000 0 0 0
1.340982e-001 -1.455410e-001 -1.024317e+000 0 0 0
1.210253e-001 -1.477632e-001 -1.033530e+000 0 0 0
1.141798e-001 -1.493600e-001 -1.037266e+000 0 0 0
9.927981e-002 -1.485770e-001 -1.041829e+000 0 0 0
8.613212e-002 -1.464100e-001 -1.045374e+000 0 0 0
7.569155e-002 -1.421620e-001 -1.046344e+000 0 0 0
6.527043e-002 -1.390160e-001 -1.046402e+000 0 0 0
5.728822e-002 -1.350783e-001 -1.044309e+000 0 0 0
5.130044e-002 -1.299176e-001 -1.041153e+000 0 0 0
4.538239e-002 -1.198925e-001 -1.035975e+000 0 0 0
4.128500e-002 -1.111702e-001 -1.032131e+000 0 0 0
3.594371e-002 -1.017939e-001 -1.028219e+000 0 0 0
2.879779e-002 -9.066771e-002 -1.023803e+000 0 0 0
2.240273e-002 -8.017343e-002 -1.021406e+000 0 0 0
1.654036e-002 -7.133856e-002 -1.018887e+000 0 0 0
1.042829e-002 -6.263111e-002 -1.017029e+000 0 0 0
2.134581e-003 -5.214933e-002 -1.015033e+000 0 0 0
-5.591750e-003 -4.148904e-002 -1.012784e+000 0 0 0
-1.132966e-002 -3.287873e-002 -1.010398e+000 0 0 0
-1.682989e-002 -2.192826e-002 -1.007890e+000 0 0 0
-2.086611e-002 -1.550659e-002 -1.008091e+000 0 0 0
-2.216302e-002 -1.211681e-002 -1.009254e+000 0 0 0
-2.247901e-002 -1.088471e-002 -1.009666e+000 0 0 0
1.102306e-001 -1.485382e-001 -1.038447e+000 0 0 0
-1.347938e-001 4.087446e-002 -2.787552e-001 0 255 0
-1.249733e-001 3.754603e-002 -3.276681e-001 255 255 0
-5.755126e-001 5.606544e-003 -4.998758e-001 255 0 0
-5.338945e-001 9.358795e-003 -5.273321e-001 255 255 0
4.051729e-001 -4.124005e-001 -1.026851e+000 0 255 0
3.699708e-001 -3.775470e-001 -1.020065e+000 255 255 0
-9.935070e-002 -4.228010e-001 -1.228214e+000 255 0 0
-9.603242e-002 -3.830667e-001 -1.198045e+000 255 255 0
