ply
format ascii 1.0
element face 0
property list uchar int vertex_indices
element vertex 161
property float x
property float y
property float z
property uchar diffuse_red
property uchar diffuse_green
property uchar diffuse_blue
end_header
-3.187271e-002 2.773416e-003 -9.880055e-001 0 0 0
-3.186768e-002 7.552382e-004 -9.873871e-001 0 0 0
-3.188846e-002 -3.983636e-003 -9.878793e-001 0 0 0
-3.147600e-002 -1.167685e-002 -9.879776e-001 0 0 0
-2.877079e-002 -2.645149e-002 -9.876030e-001 0 0 0
-2.673178e-002 -3.787133e-002 -9.863823e-001 0 0 0
-2.103657e-002 -4.918541e-002 -9.844225e-001 0 0 0
-1.142902e-002 -6.062264e-002 -9.807570e-001 0 0 0
-3.011524e-003 -6.671225e-002 -9.781511e-001 0 0 0
3.852394e-003 -7.174765e-002 -9.768954e-001 0 0 0
1.393218e-002 -7.744975e-002 -9.762010e-001 0 0 0
2.098505e-002 -8.442340e-002 -9.709295e-001 0 0 0
2.820310e-002 -9.088954e-002 -9.689747e-001 0 0 0
3.364483e-002 -9.687761e-002 -9.687691e-001 0 0 0
3.740795e-002 -1.022081e-001 -9.709810e-001 0 0 0
3.777631e-002 -1.057648e-001 -9.738915e-001 0 0 0
3.622457e-002 -1.087430e-001 -9.780212e-001 0 0 0
3.082274e-002 -1.106931e-001 -9.829489e-001 0 0 0
2.149021e-002 -1.103500e-001 -9.936459e-001 0 0 0
1.241142e-002 -1.083552e-001 -1.000567e+000 0 0 0
-4.803931e-004 -1.043575e-001 -1.004530e+000 0 0 0
-1.197784e-002 -1.012953e-001 -1.010555e+000 0 0 0
-2.445482e-002 -9.940022e-002 -1.020856e+000 0 0 0
-3.720116e-002 -9.920737e-002 -1.024732e+000 0 0 0
-5.603994e-002 -1.012426e-001 -1.021294e+000 0 0 0
-6.553779e-002 -1.038065e-001 -1.022221e+000 0 0 0
-8.379371e-002 -1.082966e-001 -1.011575e+000 0 0 0
-9.475905e-002 -1.128301e-001 -1.000020e+000 0 0 0
-1.073558e-001 -1.178465e-001 -9.833071e-001 0 0 0
-1.171671e-001 -1.213024e-001 -9.685501e-001 0 0 0
-1.243393e-001 -1.231895e-001 -9.554915e-001 0 0 0
-1.291502e-001 -1.221668e-001 -9.420118e-001 0 0 0
-1.326466e-001 -1.185995e-001 -9.301528e-001 0 0 0
-1.346421e-001 -1.127606e-001 -9.126536e-001 0 0 0
-1.350355e-001 -1.079961e-001 -8.990659e-001 0 0 0
-1.353006e-001 -1.030771e-001 -8.841385e-001 0 0 0
-1.363064e-001 -9.761879e-002 -8.654572e-001 0 0 0
-1.369804e-001 -9.499476e-002 -8.515521e-001 0 0 0
-1.384229e-001 -9.226900e-002 -8.400994e-001 0 0 0
-1.377884e-001 -8.722387e-002 -8.298236e-001 0 0 0
-1.348835e-001 -8.080514e-002 -8.155604e-001 0 0 0
-1.312468e-001 -7.500825e-002 -8.054448e-001 0 0 0
-1.272128e-001 -6.973823e-002 -7.935322e-001 0 0 0
-1.216996e-001 -6.386003e-002 -7.768351e-001 0 0 0
-1.172853e-001 -6.017627e-002 -7.654251e-001 0 0 0
-1.118668e-001 -5.628588e-002 -7.550587e-001 0 0 0
-1.074998e-001 -5.288670e-002 -7.471938e-001 0 0 0
-1.018086e-001 -4.595487e-002 -7.387146e-001 0 0 0
-9.679031e-002 -4.180416e-002 -7.347714e-001 0 0 0
-9.160848e-002 -3.827775e-002 -7.310933e-001 0 0 0
-8.618132e-002 -3.474058e-002 -7.291570e-001 0 0 0
-7.798900e-002 -3.421898e-002 -7.269433e-001 0 0 0
-7.284294e-002 -3.743913e-002 -7.292123e-001 0 0 0
-6.550313e-002 -3.893163e-002 -7.388476e-001 0 0 0
-5.947037e-002 -3.746074e-002 -7.490893e-001 0 0 0
-5.365693e-002 -3.776801e-002 -7.604768e-001 0 0 0
-5.043945e-002 -4.020693e-002 -7.714929e-001 0 0 0
-5.004331e-002 -4.379464e-002 -7.808472e-001 0 0 0
-5.297273e-002 -4.807696e-002 -7.899237e-001 0 0 0
-5.520018e-002 -5.059944e-002 -7.950003e-001 0 0 0
-5.857156e-002 -5.173999e-002 -7.997899e-001 0 0 0
-6.321062e-002 -5.209814e-002 -8.039910e-001 0 0 0
-6.603221e-002 -5.092134e-002 -8.092102e-001 0 0 0
-6.869840e-002 -4.792505e-002 -8.133496e-001 0 0 0
-6.960656e-002 -4.282519e-002 -8.145617e-001 0 0 0
-6.916719e-002 -3.596633e-002 -8.182513e-001 0 0 0
-6.873786e-002 -3.043845e-002 -8.203768e-001 0 0 0
-6.719247e-002 -2.541590e-002 -8.218742e-001 0 0 0
-4.270811e-002 -7.560129e-003 -8.881841e-001 0 0 0
-4.380086e-002 -8.901737e-003 -9.018393e-001 0 0 0
-6.160305e-002 -1.715137e-002 -9.356558e-001 0 0 0
-6.892530e-002 -2.192942e-002 -9.427329e-001 0 0 0
-7.813607e-002 -2.700296e-002 -9.480455e-001 0 0 0
-8.875526e-002 -3.143064e-002 -9.520834e-001 0 0 0
-1.043216e-001 -3.769864e-002 -9.530287e-001 0 0 0
-1.158206e-001 -4.061617e-002 -9.542442e-001 0 0 0
-1.281680e-001 -4.178151e-002 -9.556295e-001 0 0 0
-1.444120e-001 -4.269792e-002 -9.552126e-001 0 0 0
-1.549547e-001 -4.307167e-002 -9.536689e-001 0 0 0
-1.640128e-001 -4.345791e-002 -9.501720e-001 0 0 0
-1.709344e-001 -4.319311e-002 -9.451814e-001 0 0 0
-1.762374e-001 -4.169159e-002 -9.352191e-001 0 0 0
-1.757949e-001 -3.979630e-002 -9.264407e-001 0 0 0
-1.705264e-001 -3.573046e-002 -9.182553e-001 0 0 0
-1.104664e-001 -2.248576e-002 -8.888420e-001 0 0 0
-9.538610e-002 -2.246817e-002 -8.890376e-001 0 0 0
-8.194496e-002 -2.304350e-002 -8.808614e-001 0 0 0
-7.017368e-002 -2.285454e-002 -8.746041e-001 0 0 0
-6.099774e-002 -2.066229e-002 -8.693349e-001 0 0 0
-5.380184e-002 -1.495637e-002 -8.651323e-001 0 0 0
-5.027866e-002 -7.711954e-003 -8.642656e-001 0 0 0
-4.753440e-002 1.576387e-003 -8.638712e-001 0 0 0
-4.442994e-002 9.645528e-003 -8.640807e-001 0 0 0
-4.218375e-002 2.232782e-002 -8.656181e-001 0 0 0
-4.044125e-002 3.098278e-002 -8.646400e-001 0 0 0
-3.634990e-002 4.024975e-002 -8.635628e-001 0 0 0
-3.058010e-002 4.548865e-002 -8.633223e-001 0 0 0
-2.395564e-002 5.163928e-002 -8.580309e-001 0 0 0
-1.716847e-002 5.661578e-002 -8.552587e-001 0 0 0
-1.150223e-002 5.857490e-002 -8.560198e-001 0 0 0
-9.262872e-003 5.605565e-002 -8.616712e-001 0 0 0
-8.940139e-003 4.948353e-002 -8.690894e-001 0 0 0
-8.662546e-003 3.902186e-002 -8.817557e-001 0 0 0
-9.084984e-003 3.069562e-002 -8.880606e-001 0 0 0
-9.317789e-003 1.786873e-002 -9.020665e-001 0 0 0
-1.006989e-002 8.901809e-003 -9.118561e-001 0 0 0
-1.082555e-002 -1.774903e-003 -9.206466e-001 0 0 0
-1.042590e-002 -1.149325e-002 -9.318711e-001 0 0 0
-9.478836e-003 -1.926951e-002 -9.404418e-001 0 0 0
-7.421888e-003 -2.755914e-002 -9.510818e-001 0 0 0
-6.021075e-003 -3.146788e-002 -9.583499e-001 0 0 0
-3.842148e-003 -3.547204e-002 -9.645976e-001 0 0 0
-1.154780e-003 -3.978322e-002 -9.705715e-001 0 0 0
1.461751e-003 -4.536495e-002 -9.756294e-001 0 0 0
4.487762e-003 -5.416594e-002 -9.812551e-001 0 0 0
8.419360e-003 -6.254679e-002 -9.842625e-001 0 0 0
1.352023e-002 -7.271352e-002 -9.847237e-001 0 0 0
2.593907e-002 -8.513923e-002 -9.821844e-001 0 0 0
3.602180e-002 -9.226412e-002 -9.793868e-001 0 0 0
4.650242e-002 -9.651345e-002 -9.754247e-001 0 0 0
5.610875e-002 -9.953569e-002 -9.723223e-001 0 0 0
6.422512e-002 -1.019841e-001 -9.688134e-001 0 0 0
7.440941e-002 -1.047527e-001 -9.651498e-001 0 0 0
8.327617e-002 -1.068219e-001 -9.623543e-001 0 0 0
9.243274e-002 -1.086461e-001 -9.575806e-001 0 0 0
1.058138e-001 -1.107647e-001 -9.493010e-001 0 0 0
1.161651e-001 -1.100439e-001 -9.434184e-001 0 0 0
1.289629e-001 -1.082152e-001 -9.363400e-001 0 0 0
1.355146e-001 -1.072397e-001 -9.347193e-001 0 0 0
1.455105e-001 -1.071203e-001 -9.344841e-001 0 0 0
1.486756e-001 -1.083048e-001 -9.367685e-001 0 0 0
1.486959e-001 -1.123844e-001 -9.423520e-001 0 0 0
1.466713e-001 -1.164083e-001 -9.500684e-001 0 0 0
1.215214e-001 -1.241442e-001 -9.873430e-001 0 0 0
1.135715e-001 -1.255067e-001 -9.954570e-001 0 0 0
1.002835e-001 -1.275145e-001 -1.004277e+000 0 0 0
9.295183e-002 -1.281608e-001 -1.007146e+000 0 0 0
7.913981e-002 -1.283217e-001 -1.013538e+000 0 0 0
6.522644e-002 -1.260329e-001 -1.015057e+000 0 0 0
5.905401e-002 -1.246008e-001 -1.020174e+000 0 0 0
4.725884e-002 -1.205610e-001 -1.021168e+000 0 0 0
4.058009e-002 -1.175729e-001 -1.020850e+000 0 0 0
3.546893e-002 -1.132952e-001 -1.018949e+000 0 0 0
3.074545e-002 -1.042447e-001 -1.015287e+000 0 0 0
2.771748e-002 -9.669067e-002 -1.012682e+000 0 0 0
2.310157e-002 -8.823052e-002 -1.009628e+000 0 0 0
1.791050e-002 -7.968013e-002 -1.006794e+000 0 0 0
1.107823e-002 -6.821293e-002 -1.005141e+000 0 0 0
5.821480e-003 -6.009773e-002 -1.004024e+000 0 0 0
1.743098e-004 -5.214295e-002 -1.002538e+000 0 0 0
-6.214906e-003 -4.329527e-002 -1.001674e+000 0 0 0
-1.456204e-002 -3.207017e-002 -1.000529e+000 0 0 0
-2.011822e-002 -2.372727e-002 -9.989703e-001 0 0 0
-2.523926e-002 -1.313773e-002 -9.968600e-001 0 0 0
-2.952924e-002 -6.726702e-003 -9.973303e-001 0 0 0
-3.083847e-002 -3.287844e-003 -9.983645e-001 0 0 0
-3.164463e-002 -2.121696e-003 -9.982958e-001 0 0 0
-3.755804e-002 -1.450042e-003 -7.575022e-002 0 255 0
-3.539205e-002 -1.341886e-003 -1.257032e-001 255 255 0
-8.614792e-001 -5.685743e-002 -4.371933e-001 255 0 0
-8.172167e-001 -5.082681e-002 -4.596536e-001 255 255 0
