ply
format ascii 1.0
element face 0
property list uchar int vertex_indices
element vertex 929
property float x
property float y
property float z
property uchar diffuse_red
property uchar diffuse_green
property uchar diffuse_blue
end_header
-3.544003e-002 2.511282e-003 -1.114250e+000 0 0 0
-3.584823e-002 2.484890e-004 -1.113313e+000 0 0 0
-3.606376e-002 -5.627889e-003 -1.113427e+000 0 0 0
-3.510496e-002 -1.521039e-002 -1.113257e+000 0 0 0
-3.238063e-002 -3.044187e-002 -1.113224e+000 0 0 0
-3.017132e-002 -4.351017e-002 -1.111599e+000 0 0 0
-2.187206e-002 -5.815228e-002 -1.109415e+000 0 0 0
-1.269356e-002 -6.942436e-002 -1.108075e+000 0 0 0
-3.520912e-003 -7.659947e-002 -1.107147e+000 0 0 0
4.486260e-003 -8.251907e-002 -1.106980e+000 0 0 0
1.524938e-002 -8.978192e-002 -1.105138e+000 0 0 0
2.380051e-002 -9.737160e-002 -1.103454e+000 0 0 0
3.185694e-002 -1.050072e-001 -1.102231e+000 0 0 0
3.834478e-002 -1.120492e-001 -1.103638e+000 0 0 0
4.274649e-002 -1.180860e-001 -1.107334e+000 0 0 0
4.373533e-002 -1.222628e-001 -1.111422e+000 0 0 0
4.137420e-002 -1.262977e-001 -1.117931e+000 0 0 0
3.583996e-002 -1.280944e-001 -1.125244e+000 0 0 0
2.641916e-002 -1.275188e-001 -1.134120e+000 0 0 0
1.688228e-002 -1.251501e-001 -1.142310e+000 0 0 0
3.529310e-003 -1.204033e-001 -1.150880e+000 0 0 0
-9.204991e-003 -1.154760e-001 -1.154950e+000 0 0 0
-2.420504e-002 -1.143263e-001 -1.161478e+000 0 0 0
-3.908968e-002 -1.135578e-001 -1.162996e+000 0 0 0
-6.036882e-002 -1.153050e-001 -1.156318e+000 0 0 0
-7.637263e-002 -1.173831e-001 -1.145905e+000 0 0 0
-9.388676e-002 -1.205951e-001 -1.129817e+000 0 0 0
-1.063805e-001 -1.240110e-001 -1.110095e+000 0 0 0
-1.215869e-001 -1.277691e-001 -1.081374e+000 0 0 0
-1.327342e-001 -1.296098e-001 -1.060569e+000 0 0 0
-1.404924e-001 -1.301578e-001 -1.041454e+000 0 0 0
-1.463888e-001 -1.277741e-001 -1.022876e+000 0 0 0
-1.511919e-001 -1.232206e-001 -1.004787e+000 0 0 0
-1.528972e-001 -1.155591e-001 -9.848053e-001 0 0 0
-1.538767e-001 -1.099404e-001 -9.678096e-001 0 0 0
-1.548154e-001 -1.039517e-001 -9.492019e-001 0 0 0
-1.567349e-001 -9.739203e-002 -9.268478e-001 0 0 0
-1.579716e-001 -9.402087e-002 -9.103373e-001 0 0 0
-1.595535e-001 -9.025424e-002 -8.953172e-001 0 0 0
-1.591905e-001 -8.502472e-002 -8.836561e-001 0 0 0
-1.570102e-001 -7.842815e-002 -8.697770e-001 0 0 0
-1.538733e-001 -7.252995e-002 -8.588572e-001 0 0 0
-1.506178e-001 -6.677209e-002 -8.448675e-001 0 0 0
-1.461429e-001 -6.120801e-002 -8.287916e-001 0 0 0
-1.424014e-001 -5.753439e-002 -8.168909e-001 0 0 0
-1.374100e-001 -5.346136e-002 -8.057763e-001 0 0 0
-1.341831e-001 -5.020832e-002 -7.989856e-001 0 0 0
-1.291716e-001 -4.353955e-002 -7.908766e-001 0 0 0
-1.248110e-001 -3.975734e-002 -7.870354e-001 0 0 0
-1.194275e-001 -3.640530e-002 -7.844760e-001 0 0 0
-1.141957e-001 -3.305998e-002 -7.827799e-001 0 0 0
-1.072383e-001 -3.291918e-002 -7.814569e-001 0 0 0
-1.022230e-001 -3.610319e-002 -7.845698e-001 0 0 0
-9.441960e-002 -3.763013e-002 -7.961647e-001 0 0 0
-8.756072e-002 -3.663545e-002 -8.082282e-001 0 0 0
-8.119428e-002 -3.725398e-002 -8.212377e-001 0 0 0
-7.721591e-002 -3.997643e-002 -8.337722e-001 0 0 0
-7.614740e-002 -4.384428e-002 -8.454040e-001 0 0 0
-7.831414e-002 -4.812852e-002 -8.541923e-001 0 0 0
-8.039242e-002 -5.059934e-002 -8.595762e-001 0 0 0
-8.357619e-002 -5.177917e-002 -8.643861e-001 0 0 0
-8.771147e-002 -5.196917e-002 -8.696896e-001 0 0 0
-9.050645e-002 -5.092586e-002 -8.738776e-001 0 0 0
-9.285267e-002 -4.767709e-002 -8.784375e-001 0 0 0
-9.313363e-002 -4.267794e-002 -8.809640e-001 0 0 0
-9.231984e-002 -3.613238e-002 -8.845543e-001 0 0 0
-9.158517e-002 -3.025923e-002 -8.877160e-001 0 0 0
-8.982227e-002 -2.556312e-002 -8.894208e-001 0 0 0
-5.770102e-002 -7.801709e-003 -9.785337e-001 0 0 0
-5.868563e-002 -9.438770e-003 -9.924541e-001 0 0 0
-7.494220e-002 -1.835212e-002 -1.032424e+000 0 0 0
-8.247435e-002 -2.349942e-002 -1.039869e+000 0 0 0
-9.238248e-002 -2.986458e-002 -1.046141e+000 0 0 0
-1.061308e-001 -3.415689e-002 -1.045825e+000 0 0 0
-1.197348e-001 -3.993079e-002 -1.045310e+000 0 0 0
-1.318961e-001 -4.273019e-002 -1.044108e+000 0 0 0
-1.475062e-001 -4.380240e-002 -1.041148e+000 0 0 0
-1.609389e-001 -4.428794e-002 -1.038414e+000 0 0 0
-1.717649e-001 -4.442523e-002 -1.034241e+000 0 0 0
-1.816156e-001 -4.473769e-002 -1.026182e+000 0 0 0
-1.887516e-001 -4.408448e-002 -1.017588e+000 0 0 0
-1.935311e-001 -4.197052e-002 -1.005844e+000 0 0 0
-1.932748e-001 -3.990857e-002 -9.949790e-001 0 0 0
-1.886140e-001 -3.547602e-002 -9.829704e-001 0 0 0
-1.284444e-001 -2.319823e-002 -9.617066e-001 0 0 0
-1.134311e-001 -2.369027e-002 -9.614827e-001 0 0 0
-1.000825e-001 -2.410101e-002 -9.575783e-001 0 0 0
-8.865990e-002 -2.398141e-002 -9.520588e-001 0 0 0
-7.820906e-002 -2.152115e-002 -9.469970e-001 0 0 0
-7.234663e-002 -1.578142e-002 -9.440767e-001 0 0 0
-6.895562e-002 -8.259690e-003 -9.436419e-001 0 0 0
-6.597206e-002 1.118485e-003 -9.441189e-001 0 0 0
-6.204267e-002 1.013705e-002 -9.462218e-001 0 0 0
-6.042688e-002 2.264561e-002 -9.466472e-001 0 0 0
-5.828528e-002 3.208061e-002 -9.467764e-001 0 0 0
-5.383524e-002 4.187653e-002 -9.462746e-001 0 0 0
-4.922685e-002 4.659100e-002 -9.450998e-001 0 0 0
-4.089549e-002 5.352675e-002 -9.415874e-001 0 0 0
-3.406508e-002 5.868758e-002 -9.395148e-001 0 0 0
-2.815845e-002 6.086399e-002 -9.415579e-001 0 0 0
-2.484877e-002 5.861691e-002 -9.491458e-001 0 0 0
-2.358536e-002 5.179788e-002 -9.587458e-001 0 0 0
-2.264491e-002 4.050903e-002 -9.739801e-001 0 0 0
-2.207659e-002 3.171840e-002 -9.844865e-001 0 0 0
-2.032735e-002 1.861817e-002 -1.000643e+000 0 0 0
-2.021810e-002 8.866918e-003 -1.013231e+000 0 0 0
-1.867352e-002 -2.030923e-003 -1.026552e+000 0 0 0
-1.801557e-002 -1.323921e-002 -1.040417e+000 0 0 0
-1.586573e-002 -2.198631e-002 -1.052313e+000 0 0 0
-1.231890e-002 -3.123511e-002 -1.067250e+000 0 0 0
-9.681550e-003 -3.586642e-002 -1.077798e+000 0 0 0
-6.152636e-003 -4.053596e-002 -1.087674e+000 0 0 0
-2.239311e-003 -4.579957e-002 -1.096779e+000 0 0 0
1.337294e-003 -5.221265e-002 -1.104426e+000 0 0 0
5.683168e-003 -6.255896e-002 -1.113393e+000 0 0 0
1.059395e-002 -7.232788e-002 -1.118460e+000 0 0 0
1.709665e-002 -8.407172e-002 -1.121080e+000 0 0 0
3.124245e-002 -9.889054e-002 -1.120868e+000 0 0 0
4.315039e-002 -1.076091e-001 -1.120059e+000 0 0 0
5.506167e-002 -1.130463e-001 -1.117610e+000 0 0 0
6.619168e-002 -1.167960e-001 -1.115448e+000 0 0 0
7.799633e-002 -1.204321e-001 -1.112899e+000 0 0 0
8.790229e-002 -1.234361e-001 -1.110823e+000 0 0 0
9.971125e-002 -1.276567e-001 -1.109787e+000 0 0 0
1.095007e-001 -1.277169e-001 -1.103672e+000 0 0 0
1.240460e-001 -1.315429e-001 -1.097323e+000 0 0 0
1.357094e-001 -1.310864e-001 -1.091982e+000 0 0 0
1.508487e-001 -1.293372e-001 -1.085630e+000 0 0 0
1.625721e-001 -1.290033e-001 -1.085902e+000 0 0 0
1.724738e-001 -1.288457e-001 -1.087467e+000 0 0 0
1.777157e-001 -1.311377e-001 -1.092334e+000 0 0 0
1.783972e-001 -1.353254e-001 -1.099127e+000 0 0 0
1.771409e-001 -1.399643e-001 -1.108875e+000 0 0 0
1.532805e-001 -1.510832e-001 -1.157948e+000 0 0 0
1.440051e-001 -1.525719e-001 -1.166537e+000 0 0 0
1.287890e-001 -1.547310e-001 -1.176346e+000 0 0 0
1.192194e-001 -1.570686e-001 -1.181120e+000 0 0 0
1.032014e-001 -1.550958e-001 -1.184257e+000 0 0 0
8.767270e-002 -1.523989e-001 -1.187095e+000 0 0 0
7.873090e-002 -1.497020e-001 -1.188014e+000 0 0 0
6.398194e-002 -1.444224e-001 -1.186314e+000 0 0 0
5.437064e-002 -1.399129e-001 -1.182757e+000 0 0 0
4.783638e-002 -1.344399e-001 -1.178426e+000 0 0 0
4.154058e-002 -1.236071e-001 -1.171480e+000 0 0 0
3.718604e-002 -1.141035e-001 -1.166257e+000 0 0 0
3.140158e-002 -1.038795e-001 -1.160820e+000 0 0 0
2.358094e-002 -9.172232e-002 -1.154555e+000 0 0 0
1.644009e-002 -8.011448e-002 -1.150671e+000 0 0 0
9.914585e-003 -7.037442e-002 -1.146795e+000 0 0 0
3.045347e-003 -6.072371e-002 -1.143655e+000 0 0 0
-6.319389e-003 -4.909014e-002 -1.140075e+000 0 0 0
-1.502769e-002 -3.725827e-002 -1.136239e+000 0 0 0
-2.144897e-002 -2.772734e-002 -1.132530e+000 0 0 0
-2.761094e-002 -1.552945e-002 -1.128543e+000 0 0 0
-3.228352e-002 -8.256112e-003 -1.128040e+000 0 0 0
-3.387935e-002 -4.323503e-003 -1.129038e+000 0 0 0
-3.428053e-002 -2.890891e-003 -1.129398e+000 0 0 0
4.699940e-002 -8.730368e-002 -1.100291e+000 0 0 0
5.142538e-002 -8.741746e-002 -1.104818e+000 0 0 0
5.430477e-002 -8.651152e-002 -1.107241e+000 0 0 0
5.458674e-002 -8.649575e-002 -1.108005e+000 0 0 0
5.374026e-002 -8.684422e-002 -1.107848e+000 0 0 0
5.050844e-002 -8.749827e-002 -1.103502e+000 0 0 0
4.419803e-002 -8.663687e-002 -1.095285e+000 0 0 0
3.357439e-002 -8.324689e-002 -1.084442e+000 0 0 0
2.085816e-002 -7.313140e-002 -1.075291e+000 0 0 0
1.332004e-002 -6.314617e-002 -1.073692e+000 0 0 0
8.508136e-003 -5.400618e-002 -1.072455e+000 0 0 0
4.356976e-003 -4.866116e-002 -1.071862e+000 0 0 0
3.999177e-003 -4.659559e-002 -1.072009e+000 0 0 0
5.890852e-003 -4.665177e-002 -1.071362e+000 0 0 0
6.792852e-003 -4.638148e-002 -1.072637e+000 0 0 0
8.720824e-003 -4.646489e-002 -1.073833e+000 0 0 0
9.620374e-003 -4.618677e-002 -1.074829e+000 0 0 0
9.876154e-003 -4.624340e-002 -1.074868e+000 0 0 0
1.087540e-002 -4.624545e-002 -1.074818e+000 0 0 0
1.096261e-002 -4.608401e-002 -1.075190e+000 0 0 0
1.113578e-002 -4.613982e-002 -1.075345e+000 0 0 0
1.104271e-002 -4.612090e-002 -1.075398e+000 0 0 0
1.094467e-002 -4.622687e-002 -1.075549e+000 0 0 0
1.110642e-002 -4.592826e-002 -1.075401e+000 0 0 0
1.101583e-002 -4.597093e-002 -1.075418e+000 0 0 0
1.076855e-002 -4.605654e-002 -1.075484e+000 0 0 0
1.071792e-002 -4.595265e-002 -1.075015e+000 0 0 0
1.086319e-002 -4.612588e-002 -1.074789e+000 0 0 0
1.075281e-002 -4.602472e-002 -1.074796e+000 0 0 0
1.072822e-002 -4.603290e-002 -1.074836e+000 0 0 0
1.072822e-002 -4.603290e-002 -1.074836e+000 0 0 0
1.072822e-002 -4.603290e-002 -1.074836e+000 0 0 0
1.084163e-002 -4.613751e-002 -1.074706e+000 0 0 0
1.101269e-002 -4.591957e-002 -1.074852e+000 0 0 0
1.098050e-002 -4.596699e-002 -1.074724e+000 0 0 0
1.093642e-002 -4.590506e-002 -1.074774e+000 0 0 0
1.083049e-002 -4.581289e-002 -1.074784e+000 0 0 0
1.081178e-002 -4.582144e-002 -1.074864e+000 0 0 0
1.079382e-002 -4.586694e-002 -1.074963e+000 0 0 0
1.076375e-002 -4.587261e-002 -1.074966e+000 0 0 0
1.083126e-002 -4.586087e-002 -1.075218e+000 0 0 0
1.102269e-002 -4.563629e-002 -1.075871e+000 0 0 0
1.075011e-002 -4.511693e-002 -1.076712e+000 0 0 0
9.354555e-003 -4.414194e-002 -1.079040e+000 0 0 0
8.981334e-003 -4.133528e-002 -1.084473e+000 0 0 0
9.389571e-003 -3.550203e-002 -1.094031e+000 0 0 0
6.308416e-003 -2.782878e-002 -1.102539e+000 0 0 0
3.102505e-003 -2.059579e-002 -1.109724e+000 0 0 0
-6.825471e-004 -1.175290e-002 -1.116595e+000 0 0 0
-2.940604e-003 -6.671212e-003 -1.120366e+000 0 0 0
-2.292367e-003 -9.213300e-004 -1.123243e+000 0 0 0
-3.095262e-003 3.770438e-003 -1.124769e+000 0 0 0
-5.237528e-003 7.666263e-003 -1.126690e+000 0 0 0
-5.666938e-003 9.396104e-003 -1.127521e+000 0 0 0
-7.251366e-003 9.080511e-003 -1.127325e+000 0 0 0
-1.500235e-002 7.783706e-003 -1.122655e+000 0 0 0
-2.378033e-002 8.477979e-003 -1.118314e+000 0 0 0
-3.129971e-002 1.052341e-002 -1.113351e+000 0 0 0
-3.704085e-002 1.325951e-002 -1.109648e+000 0 0 0
-3.991909e-002 1.487540e-002 -1.107485e+000 0 0 0
-4.062069e-002 1.512063e-002 -1.106859e+000 0 0 0
-4.018611e-002 1.493889e-002 -1.107388e+000 0 0 0
-4.005241e-002 1.518419e-002 -1.107643e+000 0 0 0
-4.036152e-002 1.558142e-002 -1.107644e+000 0 0 0
-4.029416e-002 1.574261e-002 -1.107791e+000 0 0 0
-4.010806e-002 1.554401e-002 -1.107762e+000 0 0 0
-3.995902e-002 1.577208e-002 -1.108145e+000 0 0 0
-3.943932e-002 1.684603e-002 -1.108983e+000 0 0 0
-3.845564e-002 1.964472e-002 -1.111392e+000 0 0 0
-3.741943e-002 2.625682e-002 -1.116242e+000 0 0 0
-3.472839e-002 3.430245e-002 -1.123046e+000 0 0 0
-3.121768e-002 3.491505e-002 -1.126192e+000 0 0 0
-2.870485e-002 3.422208e-002 -1.127531e+000 0 0 0
-2.726213e-002 3.281092e-002 -1.127410e+000 0 0 0
-2.758268e-002 3.178232e-002 -1.126759e+000 0 0 0
-2.807842e-002 3.130229e-002 -1.125890e+000 0 0 0
-2.855907e-002 3.114225e-002 -1.125327e+000 0 0 0
-2.902514e-002 3.054425e-002 -1.124485e+000 0 0 0
-2.936618e-002 3.059242e-002 -1.124092e+000 0 0 0
-2.977448e-002 2.990348e-002 -1.123793e+000 0 0 0
-3.001291e-002 2.991389e-002 -1.123571e+000 0 0 0
-2.991760e-002 2.991235e-002 -1.123538e+000 0 0 0
-2.990891e-002 2.973044e-002 -1.123405e+000 0 0 0
-2.976462e-002 2.954153e-002 -1.123348e+000 0 0 0
-2.979762e-002 2.738475e-002 -1.121832e+000 0 0 0
-2.926262e-002 2.432228e-002 -1.120494e+000 0 0 0
-2.886481e-002 2.173123e-002 -1.119296e+000 0 0 0
-2.832730e-002 1.842511e-002 -1.117615e+000 0 0 0
-2.829752e-002 1.562469e-002 -1.116431e+000 0 0 0
-2.851740e-002 1.401344e-002 -1.115472e+000 0 0 0
-2.866048e-002 1.363488e-002 -1.115121e+000 0 0 0
-2.858014e-002 1.384845e-002 -1.115426e+000 0 0 0
-2.859025e-002 1.392581e-002 -1.115457e+000 0 0 0
-2.895335e-002 1.395052e-002 -1.115078e+000 0 0 0
-3.097166e-002 1.476194e-002 -1.114813e+000 0 0 0
-3.157560e-002 1.491234e-002 -1.115179e+000 0 0 0
-3.177865e-002 1.485271e-002 -1.115623e+000 0 0 0
-3.185224e-002 1.489567e-002 -1.115431e+000 0 0 0
-3.171951e-002 1.474181e-002 -1.115328e+000 0 0 0
-3.187663e-002 1.456522e-002 -1.114896e+000 0 0 0
-3.174333e-002 1.393625e-002 -1.114866e+000 0 0 0
-3.136693e-002 1.353024e-002 -1.114963e+000 0 0 0
-3.074254e-002 1.394571e-002 -1.115653e+000 0 0 0
-2.946103e-002 1.467650e-002 -1.116620e+000 0 0 0
-2.830887e-002 1.589672e-002 -1.117890e+000 0 0 0
-2.706591e-002 1.718238e-002 -1.119733e+000 0 0 0
-2.656832e-002 1.715397e-002 -1.119899e+000 0 0 0
-2.636741e-002 1.715049e-002 -1.119791e+000 0 0 0
-2.652133e-002 1.768319e-002 -1.120200e+000 0 0 0
-2.627509e-002 1.808487e-002 -1.120688e+000 0 0 0
-2.626754e-002 1.847163e-002 -1.121053e+000 0 0 0
-2.574128e-002 1.992074e-002 -1.122105e+000 0 0 0
-2.564399e-002 2.076202e-002 -1.122366e+000 0 0 0
-2.524298e-002 2.180744e-002 -1.123204e+000 0 0 0
-2.570282e-002 2.217217e-002 -1.122973e+000 0 0 0
-2.607474e-002 2.112959e-002 -1.122045e+000 0 0 0
-2.636164e-002 2.037987e-002 -1.121261e+000 0 0 0
-2.673542e-002 1.882169e-002 -1.120001e+000 0 0 0
-2.686261e-002 1.719887e-002 -1.118880e+000 0 0 0
-2.747818e-002 1.554223e-002 -1.117355e+000 0 0 0
-2.726809e-002 1.544387e-002 -1.117595e+000 0 0 0
-2.677966e-002 1.634459e-002 -1.118267e+000 0 0 0
-2.610825e-002 1.759196e-002 -1.119540e+000 0 0 0
-2.528172e-002 1.911103e-002 -1.121127e+000 0 0 0
-2.528353e-002 1.939985e-002 -1.121198e+000 0 0 0
-2.559410e-002 1.867135e-002 -1.120475e+000 0 0 0
-2.604858e-002 1.722048e-002 -1.119204e+000 0 0 0
-2.597220e-002 1.656206e-002 -1.119011e+000 0 0 0
-2.555582e-002 1.794106e-002 -1.119735e+000 0 0 0
-2.514162e-002 1.873344e-002 -1.120435e+000 0 0 0
-2.483292e-002 1.762852e-002 -1.120087e+000 0 0 0
-2.485254e-002 1.505908e-002 -1.119947e+000 0 0 0
-2.511604e-002 8.121097e-003 -1.118579e+000 0 0 0
-2.349326e-002 -1.876665e-003 -1.114967e+000 0 0 0
-2.175053e-002 -1.080655e-002 -1.110127e+000 0 0 0
-2.144710e-002 -1.924202e-002 -1.106721e+000 0 0 0
-2.287560e-002 -2.851399e-002 -1.102795e+000 0 0 0
-2.226694e-002 -4.100382e-002 -1.097194e+000 0 0 0
-2.078179e-002 -4.719876e-002 -1.093810e+000 0 0 0
-1.864316e-002 -4.897566e-002 -1.091685e+000 0 0 0
-1.527880e-002 -4.749470e-002 -1.091872e+000 0 0 0
-1.572777e-002 -4.654847e-002 -1.092344e+000 0 0 0
-1.590427e-002 -4.651528e-002 -1.091590e+000 0 0 0
-1.605505e-002 -4.663520e-002 -1.091145e+000 0 0 0
-1.488443e-002 -4.588970e-002 -1.092734e+000 0 0 0
-1.142585e-002 -4.521552e-002 -1.095325e+000 0 0 0
-6.068911e-003 -4.489643e-002 -1.097466e+000 0 0 0
6.691264e-004 -4.435762e-002 -1.099159e+000 0 0 0
6.489152e-003 -4.549780e-002 -1.099513e+000 0 0 0
9.440588e-003 -4.608165e-002 -1.099219e+000 0 0 0
1.194682e-002 -4.544693e-002 -1.098525e+000 0 0 0
1.148361e-002 -4.443736e-002 -1.098480e+000 0 0 0
5.779714e-003 -4.177642e-002 -1.099005e+000 0 0 0
-3.577304e-003 -3.809724e-002 -1.102293e+000 0 0 0
-1.719383e-002 -3.139471e-002 -1.103495e+000 0 0 0
-3.523161e-002 -2.039406e-002 -1.102967e+000 0 0 0
-4.259632e-002 -1.396978e-002 -1.100896e+000 0 0 0
-4.836570e-002 -9.265443e-003 -1.099022e+000 0 0 0
-5.225127e-002 -6.063062e-003 -1.097656e+000 0 0 0
-5.243287e-002 -5.806793e-003 -1.097435e+000 0 0 0
-5.239906e-002 -7.023072e-003 -1.096327e+000 0 0 0
-5.177614e-002 -8.116851e-003 -1.095118e+000 0 0 0
-5.093810e-002 -8.281964e-003 -1.095063e+000 0 0 0
-5.091053e-002 -8.200804e-003 -1.095145e+000 0 0 0
-5.051951e-002 -7.805855e-003 -1.096128e+000 0 0 0
-5.015139e-002 -6.942481e-003 -1.098148e+000 0 0 0
-4.976029e-002 -5.324054e-003 -1.100041e+000 0 0 0
-4.752576e-002 3.350655e-004 -1.106275e+000 0 0 0
-4.554298e-002 9.689989e-003 -1.113120e+000 0 0 0
-4.373648e-002 2.760591e-002 -1.126130e+000 0 0 0
-4.240903e-002 3.584755e-002 -1.131143e+000 0 0 0
-4.175503e-002 3.712123e-002 -1.132240e+000 0 0 0
-4.235909e-002 3.489633e-002 -1.130897e+000 0 0 0
-4.334006e-002 3.129369e-002 -1.128577e+000 0 0 0
-4.278090e-002 2.144699e-002 -1.125767e+000 0 0 0
-4.172391e-002 5.000761e-003 -1.119246e+000 0 0 0
-3.721658e-002 -1.399785e-002 -1.107836e+000 0 0 0
-3.097897e-002 -2.920891e-002 -1.093868e+000 0 0 0
-2.702529e-002 -3.514128e-002 -1.086974e+000 0 0 0
-2.679474e-002 -3.605661e-002 -1.085314e+000 0 0 0
-2.767369e-002 -3.561656e-002 -1.085331e+000 0 0 0
-2.836173e-002 -3.483009e-002 -1.086174e+000 0 0 0
-2.888115e-002 -3.431035e-002 -1.087048e+000 0 0 0
-2.936507e-002 -3.362602e-002 -1.086819e+000 0 0 0
-3.032105e-002 -3.224004e-002 -1.087482e+000 0 0 0
-3.111749e-002 -3.136839e-002 -1.087753e+000 0 0 0
-3.111749e-002 -3.136839e-002 -1.087753e+000 0 0 0
-3.080960e-002 -3.135083e-002 -1.087753e+000 0 0 0
-3.054087e-002 -3.154047e-002 -1.087820e+000 0 0 0
-3.024674e-002 -3.156374e-002 -1.088424e+000 0 0 0
-3.003781e-002 -3.170791e-002 -1.088065e+000 0 0 0
-3.004783e-002 -3.159365e-002 -1.088587e+000 0 0 0
-3.036938e-002 -3.129816e-002 -1.088480e+000 0 0 0
-3.024525e-002 -3.113090e-002 -1.088755e+000 0 0 0
-3.037081e-002 -3.111345e-002 -1.088782e+000 0 0 0
-3.023953e-002 -3.117586e-002 -1.088770e+000 0 0 0
-3.033534e-002 -3.101518e-002 -1.088785e+000 0 0 0
-3.027331e-002 -3.081258e-002 -1.088951e+000 0 0 0
-3.029459e-002 -3.078495e-002 -1.088964e+000 0 0 0
-3.033750e-002 -3.079133e-002 -1.089026e+000 0 0 0
-3.029459e-002 -3.078495e-002 -1.088964e+000 0 0 0
-3.063401e-002 -3.063591e-002 -1.088888e+000 0 0 0
-3.068312e-002 -3.050758e-002 -1.089121e+000 0 0 0
-3.063766e-002 -3.056479e-002 -1.088991e+000 0 0 0
-3.060340e-002 -3.061439e-002 -1.088972e+000 0 0 0
-3.063766e-002 -3.056479e-002 -1.088991e+000 0 0 0
-3.074577e-002 -3.057528e-002 -1.088829e+000 0 0 0
-3.065137e-002 -3.059832e-002 -1.088894e+000 0 0 0
-3.071375e-002 -3.060430e-002 -1.088668e+000 0 0 0
-3.064853e-002 -3.059228e-002 -1.088816e+000 0 0 0
-3.071375e-002 -3.060430e-002 -1.088668e+000 0 0 0
-3.058835e-002 -3.048098e-002 -1.088767e+000 0 0 0
-3.070065e-002 -3.050530e-002 -1.088631e+000 0 0 0
-3.058835e-002 -3.048098e-002 -1.088767e+000 0 0 0
-3.058835e-002 -3.048098e-002 -1.088767e+000 0 0 0
-3.072580e-002 -3.033867e-002 -1.088786e+000 0 0 0
-3.068679e-002 -3.049737e-002 -1.089066e+000 0 0 0
-3.055772e-002 -3.045946e-002 -1.088852e+000 0 0 0
-3.058811e-002 -3.042190e-002 -1.089124e+000 0 0 0
-3.055772e-002 -3.045946e-002 -1.088852e+000 0 0 0
-3.031024e-002 -3.055331e-002 -1.088849e+000 0 0 0
-3.031024e-002 -3.055331e-002 -1.088849e+000 0 0 0
-3.031024e-002 -3.055331e-002 -1.088849e+000 0 0 0
-3.028845e-002 -3.063230e-002 -1.088799e+000 0 0 0
-3.038663e-002 -3.055965e-002 -1.088737e+000 0 0 0
-3.065133e-002 -3.044267e-002 -1.088524e+000 0 0 0
-3.061090e-002 -3.048860e-002 -1.088433e+000 0 0 0
-3.035690e-002 -3.049792e-002 -1.088732e+000 0 0 0
-3.074631e-002 -3.033183e-002 -1.088571e+000 0 0 0
-3.055133e-002 -3.033734e-002 -1.088739e+000 0 0 0
-3.070795e-002 -3.035495e-002 -1.088847e+000 0 0 0
-3.069997e-002 -3.026270e-002 -1.088709e+000 0 0 0
-3.056800e-002 -3.039866e-002 -1.088664e+000 0 0 0
-3.069997e-002 -3.026270e-002 -1.088709e+000 0 0 0
-3.044526e-002 -3.020122e-002 -1.089117e+000 0 0 0
-2.941941e-002 -2.913961e-002 -1.091887e+000 0 0 0
-2.938978e-002 -2.612829e-002 -1.096567e+000 0 0 0
-3.205217e-002 -2.051473e-002 -1.102841e+000 0 0 0
-3.512598e-002 -1.308454e-002 -1.108044e+000 0 0 0
-4.041723e-002 -4.368883e-003 -1.111533e+000 0 0 0
-4.433790e-002 1.592274e-003 -1.111216e+000 0 0 0
-4.902884e-002 5.374259e-003 -1.108832e+000 0 0 0
-5.201844e-002 7.535824e-003 -1.106597e+000 0 0 0
-5.246212e-002 7.619795e-003 -1.105910e+000 0 0 0
-5.259852e-002 7.068118e-003 -1.105301e+000 0 0 0
-5.268279e-002 6.865686e-003 -1.105259e+000 0 0 0
-5.271597e-002 7.035716e-003 -1.105475e+000 0 0 0
-5.329657e-002 7.149791e-003 -1.104969e+000 0 0 0
-5.682234e-002 8.712897e-003 -1.103420e+000 0 0 0
-6.216776e-002 1.332333e-002 -1.098911e+000 0 0 0
-6.610962e-002 1.688183e-002 -1.095278e+000 0 0 0
-6.871061e-002 1.949328e-002 -1.091995e+000 0 0 0
-7.029808e-002 2.099248e-002 -1.089662e+000 0 0 0
-7.070055e-002 2.106196e-002 -1.088699e+000 0 0 0
-7.035302e-002 2.066910e-002 -1.088655e+000 0 0 0
-7.044501e-002 2.069675e-002 -1.088533e+000 0 0 0
-7.031810e-002 2.059519e-002 -1.088573e+000 0 0 0
-7.044026e-002 2.059005e-002 -1.088629e+000 0 0 0
-7.049089e-002 2.046385e-002 -1.088711e+000 0 0 0
-7.047377e-002 2.064357e-002 -1.088631e+000 0 0 0
-7.037189e-002 2.045880e-002 -1.088538e+000 0 0 0
-7.036649e-002 2.014794e-002 -1.088583e+000 0 0 0
-6.967423e-002 1.939633e-002 -1.089127e+000 0 0 0
-6.904498e-002 1.852883e-002 -1.089461e+000 0 0 0
-6.743316e-002 1.643638e-002 -1.090354e+000 0 0 0
-6.500471e-002 1.139761e-002 -1.090717e+000 0 0 0
-5.980864e-002 4.318256e-003 -1.092304e+000 0 0 0
-5.388655e-002 -3.682223e-003 -1.094053e+000 0 0 0
-4.713165e-002 -1.234492e-002 -1.094524e+000 0 0 0
-4.040495e-002 -2.407029e-002 -1.090296e+000 0 0 0
-2.993120e-002 -3.989585e-002 -1.076532e+000 0 0 0
-2.569916e-002 -4.449175e-002 -1.071436e+000 0 0 0
-1.944416e-002 -5.096716e-002 -1.066641e+000 0 0 0
-1.598534e-002 -5.591454e-002 -1.065799e+000 0 0 0
-1.412921e-002 -6.663712e-002 -1.064980e+000 0 0 0
-1.188075e-002 -7.690674e-002 -1.063745e+000 0 0 0
-1.193380e-002 -8.638829e-002 -1.062626e+000 0 0 0
-1.199001e-002 -9.630551e-002 -1.062796e+000 0 0 0
-1.228262e-002 -9.857074e-002 -1.063048e+000 0 0 0
-9.482798e-003 -9.909193e-002 -1.067573e+000 0 0 0
-7.899858e-003 -9.714951e-002 -1.069957e+000 0 0 0
-8.379598e-003 -9.548968e-002 -1.070667e+000 0 0 0
-1.085278e-002 -9.240919e-002 -1.070359e+000 0 0 0
-1.275320e-002 -8.535973e-002 -1.071673e+000 0 0 0
-1.462525e-002 -7.531041e-002 -1.074257e+000 0 0 0
-1.964646e-002 -6.031473e-002 -1.077919e+000 0 0 0
-2.421406e-002 -4.865026e-002 -1.080223e+000 0 0 0
-2.702866e-002 -4.114995e-002 -1.082237e+000 0 0 0
-2.716739e-002 -3.604251e-002 -1.084179e+000 0 0 0
-2.772210e-002 -3.436496e-002 -1.083929e+000 0 0 0
-2.847246e-002 -3.458042e-002 -1.081750e+000 0 0 0
-2.931748e-002 -3.418234e-002 -1.080911e+000 0 0 0
-2.994448e-002 -3.381208e-002 -1.080679e+000 0 0 0
-2.992605e-002 -3.389294e-002 -1.080128e+000 0 0 0
-2.991487e-002 -3.395159e-002 -1.080148e+000 0 0 0
-3.030952e-002 -3.376978e-002 -1.079921e+000 0 0 0
-3.037729e-002 -3.389617e-002 -1.079443e+000 0 0 0
-3.062021e-002 -3.378051e-002 -1.079016e+000 0 0 0
-3.047569e-002 -3.377660e-002 -1.079220e+000 0 0 0
-3.051935e-002 -3.376339e-002 -1.079528e+000 0 0 0
-3.064779e-002 -3.374846e-002 -1.079058e+000 0 0 0
-3.071078e-002 -3.367320e-002 -1.078921e+000 0 0 0
-3.090555e-002 -3.361830e-002 -1.078781e+000 0 0 0
-3.103067e-002 -3.345270e-002 -1.078688e+000 0 0 0
-3.139640e-002 -3.316839e-002 -1.078459e+000 0 0 0
-3.133389e-002 -3.320457e-002 -1.078746e+000 0 0 0
-3.174603e-002 -3.304942e-002 -1.078415e+000 0 0 0
-3.161723e-002 -3.306314e-002 -1.078746e+000 0 0 0
-3.177461e-002 -3.296561e-002 -1.078758e+000 0 0 0
-3.177461e-002 -3.296561e-002 -1.078758e+000 0 0 0
-3.177357e-002 -3.293233e-002 -1.078677e+000 0 0 0
-3.162810e-002 -3.301818e-002 -1.078828e+000 0 0 0
-3.148366e-002 -3.315679e-002 -1.078858e+000 0 0 0
-3.112031e-002 -3.328175e-002 -1.079073e+000 0 0 0
-3.124820e-002 -3.321666e-002 -1.079192e+000 0 0 0
-3.130188e-002 -3.316041e-002 -1.079497e+000 0 0 0
-3.118743e-002 -3.318438e-002 -1.079545e+000 0 0 0
-3.119564e-002 -3.318023e-002 -1.079222e+000 0 0 0
-3.123841e-002 -3.315815e-002 -1.079458e+000 0 0 0
-3.118743e-002 -3.318438e-002 -1.079545e+000 0 0 0
-3.133643e-002 -3.314326e-002 -1.079602e+000 0 0 0
-3.122555e-002 -3.324482e-002 -1.079833e+000 0 0 0
-3.119186e-002 -3.320928e-002 -1.079885e+000 0 0 0
-3.121817e-002 -3.320133e-002 -1.079797e+000 0 0 0
-3.124208e-002 -3.310806e-002 -1.079677e+000 0 0 0
-3.137406e-002 -3.304639e-002 -1.079632e+000 0 0 0
-3.124208e-002 -3.310806e-002 -1.079677e+000 0 0 0
-3.137406e-002 -3.304639e-002 -1.079632e+000 0 0 0
-3.139774e-002 -3.310964e-002 -1.079883e+000 0 0 0
-3.148339e-002 -3.300703e-002 -1.080119e+000 0 0 0
-3.171515e-002 -3.280400e-002 -1.080292e+000 0 0 0
-3.184929e-002 -3.277046e-002 -1.080304e+000 0 0 0
-3.191988e-002 -3.268579e-002 -1.080272e+000 0 0 0
-3.195905e-002 -3.268033e-002 -1.080268e+000 0 0 0
-3.195905e-002 -3.268033e-002 -1.080268e+000 0 0 0
-3.194527e-002 -3.267151e-002 -1.080309e+000 0 0 0
-3.206330e-002 -3.265734e-002 -1.080181e+000 0 0 0
-3.197841e-002 -3.270538e-002 -1.080192e+000 0 0 0
-3.185797e-002 -3.269145e-002 -1.080289e+000 0 0 0
-3.211162e-002 -3.254369e-002 -1.080182e+000 0 0 0
-3.208245e-002 -3.256022e-002 -1.080151e+000 0 0 0
-3.211599e-002 -3.248246e-002 -1.080153e+000 0 0 0
-3.211162e-002 -3.254369e-002 -1.080182e+000 0 0 0
-3.211599e-002 -3.248246e-002 -1.080153e+000 0 0 0
-3.219119e-002 -3.242194e-002 -1.080180e+000 0 0 0
-3.217926e-002 -3.244533e-002 -1.080345e+000 0 0 0
-3.217926e-002 -3.244533e-002 -1.080345e+000 0 0 0
-3.217926e-002 -3.244533e-002 -1.080345e+000 0 0 0
-3.221926e-002 -3.237910e-002 -1.080312e+000 0 0 0
-3.226883e-002 -3.230491e-002 -1.080283e+000 0 0 0
-3.226883e-002 -3.230491e-002 -1.080283e+000 0 0 0
-3.228664e-002 -3.232200e-002 -1.080250e+000 0 0 0
-3.245383e-002 -3.224232e-002 -1.080183e+000 0 0 0
-3.272140e-002 -3.195877e-002 -1.079974e+000 0 0 0
-3.256010e-002 -3.196133e-002 -1.080055e+000 0 0 0
-3.258971e-002 -3.200278e-002 -1.080189e+000 0 0 0
-3.249424e-002 -3.225430e-002 -1.080184e+000 0 0 0
-3.261841e-002 -3.196161e-002 -1.080317e+000 0 0 0
-3.261464e-002 -3.197165e-002 -1.080372e+000 0 0 0
-3.262050e-002 -3.207267e-002 -1.080422e+000 0 0 0
-3.257898e-002 -3.200311e-002 -1.080385e+000 0 0 0
-3.243012e-002 -3.205113e-002 -1.080423e+000 0 0 0
-3.232906e-002 -3.195078e-002 -1.080722e+000 0 0 0
-3.215974e-002 -3.151769e-002 -1.082004e+000 0 0 0
-3.169134e-002 -3.021319e-002 -1.086072e+000 0 0 0
-3.234252e-002 -2.786521e-002 -1.089938e+000 0 0 0
-3.385257e-002 -2.526861e-002 -1.093388e+000 0 0 0
-3.579207e-002 -2.300530e-002 -1.094928e+000 0 0 0
-3.996438e-002 -1.966367e-002 -1.095372e+000 0 0 0
-4.369049e-002 -1.601874e-002 -1.095174e+000 0 0 0
-4.665070e-002 -1.351802e-002 -1.094423e+000 0 0 0
-4.856048e-002 -1.155303e-002 -1.093404e+000 0 0 0
-4.925786e-002 -1.098647e-002 -1.092739e+000 0 0 0
-5.021130e-002 -1.079929e-002 -1.091193e+000 0 0 0
-5.059684e-002 -1.005660e-002 -1.090810e+000 0 0 0
-5.070497e-002 -9.468688e-003 -1.091898e+000 0 0 0
-5.013101e-002 -9.473011e-003 -1.092462e+000 0 0 0
-5.023734e-002 -8.961839e-003 -1.093071e+000 0 0 0
-5.032224e-002 -8.999358e-003 -1.092731e+000 0 0 0
-4.960561e-002 -9.785771e-003 -1.092263e+000 0 0 0
-4.932008e-002 -1.039156e-002 -1.091810e+000 0 0 0
-4.826496e-002 -1.104586e-002 -1.092373e+000 0 0 0
-4.778258e-002 -1.166798e-002 -1.092484e+000 0 0 0
-4.704147e-002 -1.255387e-002 -1.092332e+000 0 0 0
-4.491164e-002 -1.470318e-002 -1.092468e+000 0 0 0
-4.126546e-002 -1.911712e-002 -1.091407e+000 0 0 0
-3.176418e-002 -2.815100e-002 -1.088957e+000 0 0 0
-1.979707e-002 -3.653132e-002 -1.086888e+000 0 0 0
-1.532389e-002 -3.895896e-002 -1.087083e+000 0 0 0
-1.656651e-002 -3.768689e-002 -1.088769e+000 0 0 0
-1.821084e-002 -3.584304e-002 -1.089296e+000 0 0 0
-1.842248e-002 -3.554844e-002 -1.089756e+000 0 0 0
-1.703492e-002 -3.595047e-002 -1.090037e+000 0 0 0
-1.584304e-002 -3.628554e-002 -1.090667e+000 0 0 0
-1.481450e-002 -3.626171e-002 -1.091596e+000 0 0 0
-1.486211e-002 -3.619170e-002 -1.091728e+000 0 0 0
-1.497481e-002 -3.632224e-002 -1.091206e+000 0 0 0
-1.504918e-002 -3.639727e-002 -1.090274e+000 0 0 0
-1.502053e-002 -3.606890e-002 -1.091565e+000 0 0 0
-1.461744e-002 -3.561661e-002 -1.091957e+000 0 0 0
-1.480197e-002 -3.556373e-002 -1.091743e+000 0 0 0
-1.532079e-002 -3.543981e-002 -1.091644e+000 0 0 0
-1.566599e-002 -3.545132e-002 -1.091116e+000 0 0 0
-1.577323e-002 -3.533302e-002 -1.090822e+000 0 0 0
-1.530342e-002 -3.545996e-002 -1.091266e+000 0 0 0
-1.488419e-002 -3.564643e-002 -1.091478e+000 0 0 0
-1.461397e-002 -3.525440e-002 -1.091562e+000 0 0 0
-1.493401e-002 -3.517483e-002 -1.091921e+000 0 0 0
-1.370028e-002 -3.583151e-002 -1.091665e+000 0 0 0
-1.168753e-002 -3.667258e-002 -1.092055e+000 0 0 0
-9.552203e-003 -3.716317e-002 -1.093652e+000 0 0 0
-8.553631e-003 -3.773056e-002 -1.094247e+000 0 0 0
-8.491429e-003 -3.787183e-002 -1.093560e+000 0 0 0
-9.514673e-003 -3.793671e-002 -1.092315e+000 0 0 0
-1.032704e-002 -3.776746e-002 -1.091426e+000 0 0 0
-1.021991e-002 -3.814673e-002 -1.091223e+000 0 0 0
-9.631328e-003 -3.884980e-002 -1.090651e+000 0 0 0
-9.722630e-003 -3.865015e-002 -1.091194e+000 0 0 0
-9.891038e-003 -3.850184e-002 -1.092126e+000 0 0 0
-9.681951e-003 -3.872161e-002 -1.091708e+000 0 0 0
-8.749303e-003 -3.932938e-002 -1.091476e+000 0 0 0
-8.385933e-003 -3.925476e-002 -1.091409e+000 0 0 0
-8.479295e-003 -3.929695e-002 -1.091151e+000 0 0 0
-9.708542e-003 -3.931817e-002 -1.090548e+000 0 0 0
-1.024366e-002 -3.938043e-002 -1.089550e+000 0 0 0
-1.053953e-002 -3.902446e-002 -1.090178e+000 0 0 0
-1.063747e-002 -3.917882e-002 -1.090155e+000 0 0 0
-1.068499e-002 -3.916668e-002 -1.090044e+000 0 0 0
-1.083046e-002 -3.905447e-002 -1.089900e+000 0 0 0
-1.070232e-002 -3.906792e-002 -1.089923e+000 0 0 0
-1.048502e-002 -3.895727e-002 -1.090263e+000 0 0 0
-1.060859e-002 -3.854873e-002 -1.090511e+000 0 0 0
-1.074147e-002 -3.856889e-002 -1.090490e+000 0 0 0
-1.117491e-002 -3.831232e-002 -1.090095e+000 0 0 0
-1.037374e-002 -3.835209e-002 -1.090053e+000 0 0 0
-1.066959e-002 -3.856847e-002 -1.089497e+000 0 0 0
-1.064890e-002 -3.860875e-002 -1.089713e+000 0 0 0
-1.025705e-002 -3.895149e-002 -1.089162e+000 0 0 0
-9.879718e-003 -3.931287e-002 -1.088132e+000 0 0 0
-9.909657e-003 -3.964810e-002 -1.087555e+000 0 0 0
-9.899881e-003 -4.024299e-002 -1.087084e+000 0 0 0
-9.964259e-003 -4.021545e-002 -1.087149e+000 0 0 0
-1.026529e-002 -4.020804e-002 -1.087297e+000 0 0 0
-1.006254e-002 -4.029839e-002 -1.087341e+000 0 0 0
-9.816609e-003 -4.016901e-002 -1.087184e+000 0 0 0
-9.403479e-003 -4.062591e-002 -1.088569e+000 0 0 0
-9.459332e-003 -4.099844e-002 -1.089981e+000 0 0 0
-8.119800e-003 -4.094172e-002 -1.091329e+000 0 0 0
-7.839322e-003 -4.067670e-002 -1.091901e+000 0 0 0
-9.450963e-003 -3.987005e-002 -1.089450e+000 0 0 0
-9.686090e-003 -3.977864e-002 -1.089088e+000 0 0 0
-9.368615e-003 -3.987127e-002 -1.089747e+000 0 0 0
-8.075712e-003 -4.070682e-002 -1.090256e+000 0 0 0
-5.853469e-003 -4.127194e-002 -1.090763e+000 0 0 0
-4.255751e-003 -4.169721e-002 -1.087480e+000 0 0 0
-3.869925e-003 -4.230862e-002 -1.087532e+000 0 0 0
-4.292353e-003 -4.254988e-002 -1.087503e+000 0 0 0
-4.649998e-003 -4.302083e-002 -1.087938e+000 0 0 0
-5.043652e-003 -4.308084e-002 -1.087279e+000 0 0 0
-5.009148e-003 -4.338906e-002 -1.086948e+000 0 0 0
-4.810477e-003 -4.354030e-002 -1.086747e+000 0 0 0
-4.910902e-003 -4.295074e-002 -1.086612e+000 0 0 0
-4.642691e-003 -4.336629e-002 -1.085627e+000 0 0 0
-4.744942e-003 -4.361744e-002 -1.085517e+000 0 0 0
-4.829254e-003 -4.385852e-002 -1.086229e+000 0 0 0
-3.315363e-003 -4.534800e-002 -1.087054e+000 0 0 0
-2.874352e-003 -4.548230e-002 -1.087720e+000 0 0 0
-2.486594e-003 -4.558805e-002 -1.087972e+000 0 0 0
-2.555839e-003 -4.538542e-002 -1.087793e+000 0 0 0
-2.455604e-003 -4.549814e-002 -1.087952e+000 0 0 0
-2.509027e-003 -4.533271e-002 -1.087847e+000 0 0 0
-1.977235e-003 -4.568211e-002 -1.089005e+000 0 0 0
-1.880534e-003 -4.575166e-002 -1.088814e+000 0 0 0
-1.947622e-003 -4.645532e-002 -1.087971e+000 0 0 0
-1.966963e-003 -4.662742e-002 -1.087436e+000 0 0 0
-1.907858e-003 -4.716384e-002 -1.087887e+000 0 0 0
-1.500254e-003 -4.834401e-002 -1.087866e+000 0 0 0
-1.676587e-003 -4.714408e-002 -1.087818e+000 0 0 0
-1.467189e-003 -4.609080e-002 -1.089224e+000 0 0 0
-1.418739e-003 -4.413553e-002 -1.090348e+000 0 0 0
-1.291314e-003 -4.146620e-002 -1.091240e+000 0 0 0
-9.668451e-004 -3.939360e-002 -1.092679e+000 0 0 0
6.330214e-004 -3.612198e-002 -1.096532e+000 0 0 0
2.221732e-003 -3.375945e-002 -1.098776e+000 0 0 0
4.729398e-003 -3.111003e-002 -1.100246e+000 0 0 0
6.829934e-003 -2.803539e-002 -1.102922e+000 0 0 0
9.729126e-003 -2.417383e-002 -1.107327e+000 0 0 0
1.301404e-002 -1.912809e-002 -1.110982e+000 0 0 0
1.555497e-002 -1.590259e-002 -1.114527e+000 0 0 0
1.701419e-002 -1.372749e-002 -1.116503e+000 0 0 0
1.782725e-002 -1.437380e-002 -1.116345e+000 0 0 0
1.799059e-002 -1.453287e-002 -1.116029e+000 0 0 0
1.841901e-002 -1.431236e-002 -1.116238e+000 0 0 0
1.856321e-002 -1.405116e-002 -1.116363e+000 0 0 0
1.853851e-002 -1.467317e-002 -1.116804e+000 0 0 0
1.945850e-002 -1.610362e-002 -1.117695e+000 0 0 0
2.056531e-002 -1.741149e-002 -1.119379e+000 0 0 0
2.224311e-002 -1.991505e-002 -1.121649e+000 0 0 0
2.403675e-002 -2.279548e-002 -1.124231e+000 0 0 0
2.629174e-002 -2.564201e-002 -1.127204e+000 0 0 0
2.934224e-002 -2.862240e-002 -1.130632e+000 0 0 0
3.147567e-002 -3.106119e-002 -1.133183e+000 0 0 0
3.288193e-002 -3.210873e-002 -1.134876e+000 0 0 0
3.318428e-002 -3.229188e-002 -1.135708e+000 0 0 0
3.289821e-002 -3.239880e-002 -1.135594e+000 0 0 0
3.133094e-002 -3.205249e-002 -1.133531e+000 0 0 0
2.916523e-002 -3.238729e-002 -1.129907e+000 0 0 0
2.506464e-002 -3.280312e-002 -1.122926e+000 0 0 0
2.225062e-002 -3.496383e-002 -1.115880e+000 0 0 0
2.084359e-002 -3.595751e-002 -1.111979e+000 0 0 0
2.028861e-002 -3.526159e-002 -1.111273e+000 0 0 0
1.947606e-002 -3.169928e-002 -1.111461e+000 0 0 0
2.024581e-002 -2.925527e-002 -1.109821e+000 0 0 0
2.240680e-002 -2.596028e-002 -1.109056e+000 0 0 0
2.435566e-002 -2.395407e-002 -1.110025e+000 0 0 0
2.527438e-002 -2.086225e-002 -1.109346e+000 0 0 0
2.764954e-002 -1.946889e-002 -1.107899e+000 0 0 0
3.061456e-002 -1.723333e-002 -1.108278e+000 0 0 0
3.265898e-002 -1.386258e-002 -1.110682e+000 0 0 0
3.132081e-002 -1.036233e-002 -1.111990e+000 0 0 0
2.793453e-002 -6.734253e-003 -1.112988e+000 0 0 0
2.617348e-002 -5.257111e-003 -1.113062e+000 0 0 0
2.457845e-002 -4.013320e-003 -1.113031e+000 0 0 0
2.341568e-002 -3.178737e-003 -1.112591e+000 0 0 0
2.250084e-002 -2.873693e-003 -1.112747e+000 0 0 0
2.141062e-002 -1.468052e-003 -1.113769e+000 0 0 0
2.230898e-002 -1.259513e-003 -1.113790e+000 0 0 0
2.185754e-002 -7.461239e-004 -1.113460e+000 0 0 0
2.131995e-002 -1.080842e-003 -1.113475e+000 0 0 0
2.037534e-002 -1.484541e-003 -1.112916e+000 0 0 0
1.987133e-002 -1.675119e-003 -1.112506e+000 0 0 0
1.961665e-002 -1.844264e-003 -1.112477e+000 0 0 0
1.899239e-002 -1.893120e-003 -1.112007e+000 0 0 0
1.848134e-002 -2.154577e-003 -1.111719e+000 0 0 0
1.798032e-002 -2.140787e-003 -1.110953e+000 0 0 0
1.785556e-002 -2.270226e-003 -1.111097e+000 0 0 0
1.757046e-002 -2.363215e-003 -1.110805e+000 0 0 0
1.773875e-002 -2.485655e-003 -1.111022e+000 0 0 0
1.784712e-002 -2.464451e-003 -1.110945e+000 0 0 0
1.757472e-002 -2.454824e-003 -1.110860e+000 0 0 0
1.744063e-002 -2.518494e-003 -1.110660e+000 0 0 0
1.717743e-002 -2.575148e-003 -1.110658e+000 0 0 0
1.689743e-002 -2.475885e-003 -1.110603e+000 0 0 0
1.682867e-002 -2.475668e-003 -1.110688e+000 0 0 0
1.682889e-002 -2.426323e-003 -1.110665e+000 0 0 0
1.675086e-002 -2.460764e-003 -1.110706e+000 0 0 0
1.672727e-002 -2.497113e-003 -1.110733e+000 0 0 0
1.672916e-002 -2.494502e-003 -1.110734e+000 0 0 0
1.665436e-002 -2.593985e-003 -1.110746e+000 0 0 0
1.660129e-002 -2.413465e-003 -1.110833e+000 0 0 0
1.654174e-002 -2.406626e-003 -1.110730e+000 0 0 0
1.630137e-002 -2.328580e-003 -1.110686e+000 0 0 0
1.630581e-002 -2.227748e-003 -1.110767e+000 0 0 0
1.630581e-002 -2.227748e-003 -1.110767e+000 0 0 0
1.627823e-002 -2.206911e-003 -1.110793e+000 0 0 0
1.627016e-002 -2.252134e-003 -1.110690e+000 0 0 0
1.622870e-002 -2.410420e-003 -1.110631e+000 0 0 0
1.622487e-002 -2.404701e-003 -1.110584e+000 0 0 0
1.611221e-002 -2.340839e-003 -1.110607e+000 0 0 0
1.591264e-002 -2.402027e-003 -1.110386e+000 0 0 0
1.591264e-002 -2.402027e-003 -1.110386e+000 0 0 0
1.591264e-002 -2.402027e-003 -1.110386e+000 0 0 0
1.598072e-002 -2.558951e-003 -1.110225e+000 0 0 0
1.598757e-002 -2.501371e-003 -1.110189e+000 0 0 0
1.596669e-002 -2.483577e-003 -1.110252e+000 0 0 0
1.575074e-002 -2.539004e-003 -1.110052e+000 0 0 0
1.572983e-002 -2.510016e-003 -1.110065e+000 0 0 0
1.575074e-002 -2.539004e-003 -1.110052e+000 0 0 0
1.595641e-002 -2.537452e-003 -1.110170e+000 0 0 0
1.592907e-002 -2.568060e-003 -1.110149e+000 0 0 0
1.592907e-002 -2.568060e-003 -1.110149e+000 0 0 0
1.573781e-002 -2.547206e-003 -1.110014e+000 0 0 0
1.573097e-002 -2.604795e-003 -1.110049e+000 0 0 0
1.573781e-002 -2.547206e-003 -1.110014e+000 0 0 0
1.589164e-002 -2.602400e-003 -1.110120e+000 0 0 0
1.573781e-002 -2.547206e-003 -1.110014e+000 0 0 0
1.575074e-002 -2.539004e-003 -1.110052e+000 0 0 0
1.591498e-002 -2.388306e-003 -1.110339e+000 0 0 0
1.589046e-002 -2.403258e-003 -1.110298e+000 0 0 0
1.565455e-002 -2.303904e-003 -1.110250e+000 0 0 0
1.574088e-002 -2.343699e-003 -1.110219e+000 0 0 0
1.565453e-002 -2.292717e-003 -1.110200e+000 0 0 0
1.574088e-002 -2.343699e-003 -1.110219e+000 0 0 0
1.533913e-002 -2.045944e-003 -1.110134e+000 0 0 0
1.537047e-002 -2.105952e-003 -1.110057e+000 0 0 0
1.537047e-002 -2.105952e-003 -1.110057e+000 0 0 0
1.527605e-002 -2.032498e-003 -1.110102e+000 0 0 0
1.531199e-002 -2.172609e-003 -1.110017e+000 0 0 0
1.522749e-002 -2.116480e-003 -1.110133e+000 0 0 0
1.522104e-002 -2.058735e-003 -1.110114e+000 0 0 0
1.524841e-002 -2.039318e-003 -1.110185e+000 0 0 0
1.527956e-002 -2.003248e-003 -1.110204e+000 0 0 0
1.523768e-002 -1.990462e-003 -1.110203e+000 0 0 0
1.515944e-002 -2.011680e-003 -1.110154e+000 0 0 0
1.507976e-002 -1.852363e-003 -1.110190e+000 0 0 0
1.518824e-002 -1.978112e-003 -1.110170e+000 0 0 0
1.518824e-002 -1.978112e-003 -1.110170e+000 0 0 0
1.518899e-002 -1.911225e-003 -1.110225e+000 0 0 0
1.520653e-002 -2.026528e-003 -1.110184e+000 0 0 0
1.505021e-002 -1.952816e-003 -1.110119e+000 0 0 0
1.515944e-002 -2.011680e-003 -1.110154e+000 0 0 0
1.515944e-002 -2.011680e-003 -1.110154e+000 0 0 0
1.510646e-002 -2.049864e-003 -1.110002e+000 0 0 0
1.508815e-002 -2.001443e-003 -1.109988e+000 0 0 0
1.494212e-002 -1.901826e-003 -1.110007e+000 0 0 0
1.492133e-002 -1.939487e-003 -1.110054e+000 0 0 0
1.492284e-002 -1.947720e-003 -1.110100e+000 0 0 0
1.492284e-002 -1.947720e-003 -1.110100e+000 0 0 0
1.485011e-002 -1.899371e-003 -1.110134e+000 0 0 0
1.492133e-002 -1.939487e-003 -1.110054e+000 0 0 0
1.476919e-002 -1.918576e-003 -1.110003e+000 0 0 0
1.497739e-002 -2.007778e-003 -1.110021e+000 0 0 0
1.477294e-002 -1.901910e-003 -1.109950e+000 0 0 0
1.499034e-002 -1.999576e-003 -1.110060e+000 0 0 0
1.498658e-002 -2.016252e-003 -1.110112e+000 0 0 0
1.476919e-002 -1.918576e-003 -1.110003e+000 0 0 0
1.496514e-002 -1.960384e-003 -1.110113e+000 0 0 0
1.490932e-002 -1.894636e-003 -1.110227e+000 0 0 0
1.498186e-002 -1.923409e-003 -1.110074e+000 0 0 0
1.486809e-002 -1.659226e-003 -1.110063e+000 0 0 0
1.494219e-002 -1.591135e-003 -1.110295e+000 0 0 0
1.504560e-002 -1.685514e-003 -1.110390e+000 0 0 0
1.504560e-002 -1.685514e-003 -1.110390e+000 0 0 0
1.504560e-002 -1.685514e-003 -1.110390e+000 0 0 0
1.504560e-002 -1.685514e-003 -1.110390e+000 0 0 0
1.508210e-002 -1.652164e-003 -1.110452e+000 0 0 0
1.508210e-002 -1.652164e-003 -1.110452e+000 0 0 0
1.508210e-002 -1.652164e-003 -1.110452e+000 0 0 0
1.504560e-002 -1.685514e-003 -1.110390e+000 0 0 0
1.504560e-002 -1.685514e-003 -1.110390e+000 0 0 0
1.491586e-002 -1.755923e-003 -1.110286e+000 0 0 0
1.501458e-002 -1.766024e-003 -1.110405e+000 0 0 0
1.471498e-002 -1.611174e-003 -1.110296e+000 0 0 0
1.471498e-002 -1.611174e-003 -1.110296e+000 0 0 0
1.472398e-002 -1.668255e-003 -1.110313e+000 0 0 0
1.469225e-002 -1.592293e-003 -1.110246e+000 0 0 0
1.471957e-002 -1.561704e-003 -1.110267e+000 0 0 0
1.469225e-002 -1.592293e-003 -1.110246e+000 0 0 0
1.463506e-002 -1.478998e-003 -1.110250e+000 0 0 0
1.461023e-002 -1.427150e-003 -1.110257e+000 0 0 0
1.460896e-002 -1.489070e-003 -1.110288e+000 0 0 0
1.464190e-002 -1.512387e-003 -1.110228e+000 0 0 0
1.460896e-002 -1.489070e-003 -1.110288e+000 0 0 0
1.455884e-002 -1.542144e-003 -1.110306e+000 0 0 0
1.425087e-002 -1.367604e-003 -1.110132e+000 0 0 0
1.425087e-002 -1.367604e-003 -1.110132e+000 0 0 0
1.430097e-002 -1.336563e-003 -1.110259e+000 0 0 0
1.428032e-002 -1.336554e-003 -1.110238e+000 0 0 0
1.432366e-002 -1.363635e-003 -1.110243e+000 0 0 0
1.439601e-002 -1.212555e-003 -1.110274e+000 0 0 0
1.433340e-002 -1.254702e-003 -1.110265e+000 0 0 0
1.429345e-002 -1.227895e-003 -1.110259e+000 0 0 0
1.425763e-002 -1.309477e-003 -1.110254e+000 0 0 0
1.420626e-002 -1.402460e-003 -1.110157e+000 0 0 0
1.422892e-002 -1.461645e-003 -1.110027e+000 0 0 0
1.430438e-002 -1.526194e-003 -1.110010e+000 0 0 0
1.430511e-002 -1.522518e-003 -1.109930e+000 0 0 0
1.445055e-002 -1.553306e-003 -1.109932e+000 0 0 0
1.434804e-002 -1.469673e-003 -1.110086e+000 0 0 0
1.438502e-002 -1.391895e-003 -1.110048e+000 0 0 0
1.443918e-002 -1.435533e-003 -1.109891e+000 0 0 0
1.445644e-002 -1.408857e-003 -1.109857e+000 0 0 0
1.458294e-002 -1.451735e-003 -1.109857e+000 0 0 0
1.458301e-002 -1.325960e-003 -1.109964e+000 0 0 0
1.435577e-002 -1.172410e-003 -1.110029e+000 0 0 0
1.435577e-002 -1.172410e-003 -1.110029e+000 0 0 0
1.423171e-002 -1.215293e-003 -1.110056e+000 0 0 0
1.426980e-002 -1.078687e-003 -1.110034e+000 0 0 0
1.434262e-002 -1.074725e-003 -1.110145e+000 0 0 0
1.436861e-002 -1.166229e-003 -1.110171e+000 0 0 0
1.422310e-002 -1.214598e-003 -1.110004e+000 0 0 0
1.417620e-002 -1.312749e-003 -1.110090e+000 0 0 0
1.390714e-002 -1.431084e-003 -1.110252e+000 0 0 0
1.246391e-002 -1.080454e-003 -1.110616e+000 0 0 0
9.865087e-003 2.066041e-003 -1.113071e+000 0 0 0
7.076710e-003 7.483946e-003 -1.116047e+000 0 0 0
2.512219e-003 1.354025e-002 -1.118265e+000 0 0 0
-4.733321e-003 1.957733e-002 -1.119177e+000 0 0 0
-9.599684e-003 2.357804e-002 -1.119009e+000 0 0 0
-1.304887e-002 2.777038e-002 -1.118994e+000 0 0 0
-1.493351e-002 3.009409e-002 -1.118887e+000 0 0 0
-1.413452e-002 2.918672e-002 -1.119386e+000 0 0 0
-1.654764e-002 3.085751e-002 -1.118107e+000 0 0 0
-1.660868e-002 2.889038e-002 -1.117508e+000 0 0 0
-1.582008e-002 2.743811e-002 -1.117212e+000 0 0 0
-1.532902e-002 2.705141e-002 -1.117465e+000 0 0 0
-1.510210e-002 2.719235e-002 -1.117356e+000 0 0 0
-1.554800e-002 2.728194e-002 -1.117061e+000 0 0 0
-1.573736e-002 2.742797e-002 -1.117038e+000 0 0 0
-1.569187e-002 2.749029e-002 -1.117240e+000 0 0 0
-1.560033e-002 2.708180e-002 -1.117165e+000 0 0 0
-1.601580e-002 2.509121e-002 -1.115999e+000 0 0 0
-1.481004e-002 2.055283e-002 -1.115481e+000 0 0 0
-1.402823e-002 1.523171e-002 -1.113398e+000 0 0 0
-1.387690e-002 9.119557e-003 -1.109449e+000 0 0 0
-1.161702e-002 3.536900e-004 -1.108403e+000 0 0 0
-1.255698e-002 -8.463739e-003 -1.107643e+000 0 0 0
-1.154381e-002 -1.812838e-002 -1.106843e+000 0 0 0
-1.001109e-002 -2.797505e-002 -1.104752e+000 0 0 0
-1.035586e-002 -3.551564e-002 -1.102024e+000 0 0 0
-1.010425e-002 -4.229728e-002 -1.098131e+000 0 0 0
-8.050128e-003 -4.365346e-002 -1.095073e+000 0 0 0
-5.931153e-003 -4.287679e-002 -1.092878e+000 0 0 0
-6.566088e-003 -4.220832e-002 -1.092797e+000 0 0 0
-7.425656e-003 -4.102325e-002 -1.092878e+000 0 0 0
-9.009205e-003 -4.020286e-002 -1.093369e+000 0 0 0
-1.273440e-002 -3.813513e-002 -1.093842e+000 0 0 0
-1.419235e-002 -3.696448e-002 -1.093876e+000 0 0 0
-1.431420e-002 -3.651824e-002 -1.093430e+000 0 0 0
-1.376411e-002 -3.511449e-002 -1.093414e+000 0 0 0
-1.401626e-002 -3.239694e-002 -1.094527e+000 0 0 0
-1.682621e-002 -2.971550e-002 -1.097078e+000 0 0 0
-1.941925e-002 -2.769895e-002 -1.096640e+000 0 0 0
-2.068493e-002 -2.716804e-002 -1.095956e+000 0 0 0
-2.121198e-002 -2.552979e-002 -1.096746e+000 0 0 0
-2.309699e-002 -2.113534e-002 -1.099074e+000 0 0 0
-2.853189e-002 -1.256405e-002 -1.101871e+000 0 0 0
-3.315023e-002 -5.437259e-003 -1.104920e+000 0 0 0
-3.762405e-002 1.100233e-003 -1.106294e+000 0 0 0
-3.996371e-002 4.028863e-003 -1.105876e+000 0 0 0
-4.052605e-002 5.000855e-003 -1.105541e+000 0 0 0
-4.030445e-002 5.417509e-003 -1.105075e+000 0 0 0
-3.940562e-002 5.399458e-003 -1.104034e+000 0 0 0
-3.823449e-002 4.824300e-003 -1.103912e+000 0 0 0
-3.831608e-002 5.043147e-003 -1.104258e+000 0 0 0
-3.866475e-002 5.147963e-003 -1.104214e+000 0 0 0
-3.874570e-002 5.121303e-003 -1.103764e+000 0 0 0
-3.856109e-002 4.972233e-003 -1.103670e+000 0 0 0
-3.977349e-002 5.415475e-003 -1.103600e+000 0 0 0
-3.937798e-002 5.091717e-003 -1.103601e+000 0 0 0
-3.875127e-002 4.507732e-003 -1.103579e+000 0 0 0
-3.850984e-002 4.117173e-003 -1.103518e+000 0 0 0
-3.910761e-002 4.253421e-003 -1.103335e+000 0 0 0
-3.932875e-002 4.933612e-003 -1.103395e+000 0 0 0
-3.931612e-002 5.316295e-003 -1.103865e+000 0 0 0
-3.927011e-002 6.879039e-003 -1.104469e+000 0 0 0
-4.045273e-002 9.368349e-003 -1.105404e+000 0 0 0
-4.091109e-002 1.121069e-002 -1.106372e+000 0 0 0
-4.330966e-002 1.404262e-002 -1.106986e+000 0 0 0
-4.585041e-002 1.704124e-002 -1.106094e+000 0 0 0
-5.028618e-002 2.000980e-002 -1.103287e+000 0 0 0
-5.558277e-002 2.243814e-002 -1.098529e+000 0 0 0
-5.945070e-002 2.460719e-002 -1.094164e+000 0 0 0
-6.437631e-002 2.820151e-002 -1.088359e+000 0 0 0
-6.920253e-002 3.105693e-002 -1.080053e+000 0 0 0
-7.154897e-002 3.329332e-002 -1.074599e+000 0 0 0
-7.645129e-002 3.611371e-002 -1.063041e+000 0 0 0
-7.894651e-002 3.800768e-002 -1.052006e+000 0 0 0
-8.045031e-002 4.029361e-002 -1.043810e+000 0 0 0
-8.117669e-002 4.555709e-002 -1.038977e+000 0 0 0
-8.202618e-002 5.008925e-002 -1.039820e+000 0 0 0
-8.189773e-002 5.025617e-002 -1.041429e+000 0 0 0
-8.078440e-002 4.543302e-002 -1.044831e+000 0 0 0
-7.932816e-002 4.074753e-002 -1.049153e+000 0 0 0
-7.745855e-002 3.625627e-002 -1.053600e+000 0 0 0
-7.564446e-002 3.211558e-002 -1.057142e+000 0 0 0
-7.475189e-002 2.884250e-002 -1.058985e+000 0 0 0
-7.328153e-002 2.645458e-002 -1.060977e+000 0 0 0
-7.319508e-002 2.573716e-002 -1.062743e+000 0 0 0
-7.378139e-002 2.621378e-002 -1.063269e+000 0 0 0
-7.404851e-002 2.689842e-002 -1.063401e+000 0 0 0
-7.405611e-002 2.724088e-002 -1.063657e+000 0 0 0
-7.443882e-002 2.751381e-002 -1.063857e+000 0 0 0
-2.957531e-002 2.916507e-002 -1.123183e+000 0 0 0
-1.087620e-001 -9.978094e-004 -2.626695e-001 0 255 0
-1.022745e-001 -9.450623e-004 -3.122468e-001 255 255 0
-6.480499e-001 -3.202710e-002 -4.904925e-001 255 0 0
-6.083605e-001 -2.605155e-002 -5.203094e-001 255 255 0
4.485483e-001 -4.451194e-001 -1.207145e+000 0 255 0
4.135090e-001 -4.112745e-001 -1.195886e+000 255 255 0
-1.328333e-001 -4.402178e-001 -1.386385e+000 255 0 0
-1.277989e-001 -4.023904e-001 -1.354078e+000 255 255 0
