ply
format ascii 1.0
element face 0
property list uchar int vertex_indices
element vertex 924
property float x
property float y
property float z
property uchar diffuse_red
property uchar diffuse_green
property uchar diffuse_blue
end_header
-3.824069e-002 3.385442e-003 -1.112653e+000 0 0 0
-3.822350e-002 1.058669e-003 -1.111900e+000 0 0 0
-3.828896e-002 -4.397679e-003 -1.112496e+000 0 0 0
-3.785765e-002 -1.326179e-002 -1.112667e+000 0 0 0
-3.481336e-002 -3.030484e-002 -1.112552e+000 0 0 0
-3.248546e-002 -4.347750e-002 -1.111321e+000 0 0 0
-2.592649e-002 -5.656872e-002 -1.109661e+000 0 0 0
-1.480120e-002 -6.984765e-002 -1.106433e+000 0 0 0
-5.043163e-003 -7.696147e-002 -1.104351e+000 0 0 0
2.895018e-003 -8.285129e-002 -1.103718e+000 0 0 0
1.454409e-002 -8.956455e-002 -1.104197e+000 0 0 0
2.282540e-002 -9.767293e-002 -1.098706e+000 0 0 0
3.121435e-002 -1.052268e-001 -1.097282e+000 0 0 0
3.750567e-002 -1.122217e-001 -1.097754e+000 0 0 0
4.179406e-002 -1.184621e-001 -1.100951e+000 0 0 0
4.212813e-002 -1.226059e-001 -1.104544e+000 0 0 0
4.019974e-002 -1.260650e-001 -1.109369e+000 0 0 0
3.377511e-002 -1.282776e-001 -1.114652e+000 0 0 0
2.263418e-002 -1.278394e-001 -1.126469e+000 0 0 0
1.190136e-002 -1.254525e-001 -1.133721e+000 0 0 0
-3.144726e-003 -1.206550e-001 -1.136855e+000 0 0 0
-1.662793e-002 -1.169865e-001 -1.142711e+000 0 0 0
-3.138603e-002 -1.146947e-001 -1.153692e+000 0 0 0
-4.623095e-002 -1.143027e-001 -1.156772e+000 0 0 0
-6.778513e-002 -1.163111e-001 -1.150109e+000 0 0 0
-7.873320e-002 -1.191220e-001 -1.150023e+000 0 0 0
-9.919346e-002 -1.238784e-001 -1.134708e+000 0 0 0
-1.112046e-001 -1.287751e-001 -1.119276e+000 0 0 0
-1.247716e-001 -1.341168e-001 -1.097469e+000 0 0 0
-1.351909e-001 -1.377190e-001 -1.078479e+000 0 0 0
-1.426578e-001 -1.395849e-001 -1.061922e+000 0 0 0
-1.474019e-001 -1.381679e-001 -1.045198e+000 0 0 0
-1.507177e-001 -1.339070e-001 -1.030619e+000 0 0 0
-1.520466e-001 -1.270393e-001 -1.009535e+000 0 0 0
-1.517806e-001 -1.214813e-001 -9.933458e-001 0 0 0
-1.513026e-001 -1.157509e-001 -9.756313e-001 0 0 0
-1.514557e-001 -1.093836e-001 -9.534639e-001 0 0 0
-1.514917e-001 -1.062798e-001 -9.370298e-001 0 0 0
-1.524978e-001 -1.030845e-001 -9.234359e-001 0 0 0
-1.512524e-001 -9.732930e-002 -9.114733e-001 0 0 0
-1.472975e-001 -9.005336e-002 -8.951221e-001 0 0 0
-1.427571e-001 -8.353169e-002 -8.837195e-001 0 0 0
-1.377051e-001 -7.760445e-002 -8.702957e-001 0 0 0
-1.308083e-001 -7.100406e-002 -8.515225e-001 0 0 0
-1.254016e-001 -6.688535e-002 -8.388001e-001 0 0 0
-1.189533e-001 -6.256282e-002 -8.274151e-001 0 0 0
-1.137866e-001 -5.879447e-002 -8.188210e-001 0 0 0
-1.071301e-001 -5.111992e-002 -8.096720e-001 0 0 0
-1.014326e-001 -4.654967e-002 -8.056711e-001 0 0 0
-9.557034e-002 -4.267868e-002 -8.019977e-001 0 0 0
-8.951218e-002 -3.880214e-002 -8.003492e-001 0 0 0
-8.041312e-002 -3.830335e-002 -7.986844e-001 0 0 0
-7.485491e-002 -4.194115e-002 -8.018384e-001 0 0 0
-6.714131e-002 -4.370491e-002 -8.136900e-001 0 0 0
-6.085064e-002 -4.215513e-002 -8.261310e-001 0 0 0
-5.482906e-002 -4.258662e-002 -8.399119e-001 0 0 0
-5.166794e-002 -4.537803e-002 -8.530213e-001 0 0 0
-5.158630e-002 -4.942974e-002 -8.639223e-001 0 0 0
-5.520820e-002 -5.423106e-002 -8.741506e-001 0 0 0
-5.789491e-002 -5.705606e-002 -8.798139e-001 0 0 0
-6.184163e-002 -5.831756e-002 -8.850194e-001 0 0 0
-6.717830e-002 -5.868305e-002 -8.894005e-001 0 0 0
-7.052150e-002 -5.735006e-002 -8.951783e-001 0 0 0
-7.364102e-002 -5.396896e-002 -8.997167e-001 0 0 0
-7.468129e-002 -4.822401e-002 -9.010253e-001 0 0 0
-7.430084e-002 -4.052604e-002 -9.053890e-001 0 0 0
-7.387772e-002 -3.431461e-002 -9.079233e-001 0 0 0
-7.218751e-002 -2.867754e-002 -9.098476e-001 0 0 0
-4.706973e-002 -8.643991e-003 -9.910314e-001 0 0 0
-4.881413e-002 -1.013267e-002 -1.007191e+000 0 0 0
-7.033778e-002 -1.932902e-002 -1.045580e+000 0 0 0
-7.895305e-002 -2.471139e-002 -1.053211e+000 0 0 0
-8.964402e-002 -3.041377e-002 -1.058497e+000 0 0 0
-1.018651e-001 -3.536309e-002 -1.062091e+000 0 0 0
-1.195369e-001 -4.235044e-002 -1.061384e+000 0 0 0
-1.325807e-001 -4.555172e-002 -1.061499e+000 0 0 0
-1.465609e-001 -4.674105e-002 -1.061732e+000 0 0 0
-1.648012e-001 -4.759598e-002 -1.059369e+000 0 0 0
-1.765472e-001 -4.789424e-002 -1.056321e+000 0 0 0
-1.865022e-001 -4.822013e-002 -1.051113e+000 0 0 0
-1.939627e-001 -4.782719e-002 -1.044370e+000 0 0 0
-1.993146e-001 -4.603982e-002 -1.031884e+000 0 0 0
-1.983199e-001 -4.387705e-002 -1.021463e+000 0 0 0
-1.919820e-001 -3.931332e-002 -1.012286e+000 0 0 0
-1.234133e-001 -2.494401e-002 -9.839636e-001 0 0 0
-1.065315e-001 -2.507583e-002 -9.859029e-001 0 0 0
-9.110104e-002 -2.586204e-002 -9.777319e-001 0 0 0
-7.761694e-002 -2.576487e-002 -9.716655e-001 0 0 0
-6.707528e-002 -2.337184e-002 -9.664832e-001 0 0 0
-5.878338e-002 -1.697808e-002 -9.623411e-001 0 0 0
-5.474567e-002 -8.802202e-003 -9.617234e-001 0 0 0
-5.158163e-002 1.698051e-003 -9.615826e-001 0 0 0
-4.805784e-002 1.082523e-002 -9.621839e-001 0 0 0
-4.551766e-002 2.520063e-002 -9.642641e-001 0 0 0
-4.347302e-002 3.500113e-002 -9.633067e-001 0 0 0
-3.876632e-002 4.548517e-002 -9.625105e-001 0 0 0
-3.221111e-002 5.140407e-002 -9.629039e-001 0 0 0
-2.449437e-002 5.830881e-002 -9.574272e-001 0 0 0
-1.668657e-002 6.390818e-002 -9.549541e-001 0 0 0
-1.026931e-002 6.612738e-002 -9.565379e-001 0 0 0
-7.915150e-003 6.332153e-002 -9.635101e-001 0 0 0
-7.817290e-003 5.592283e-002 -9.723576e-001 0 0 0
-7.965718e-003 4.412555e-002 -9.874592e-001 0 0 0
-8.671538e-003 3.468739e-002 -9.949461e-001 0 0 0
-9.442165e-003 2.014178e-002 -1.011670e+000 0 0 0
-1.065946e-002 9.949151e-003 -1.023313e+000 0 0 0
-1.184801e-002 -2.225226e-003 -1.033790e+000 0 0 0
-1.181100e-002 -1.333166e-002 -1.047344e+000 0 0 0
-1.103949e-002 -2.224604e-002 -1.057805e+000 0 0 0
-9.058971e-003 -3.178125e-002 -1.070932e+000 0 0 0
-7.699838e-003 -3.629359e-002 -1.079917e+000 0 0 0
-5.408731e-003 -4.093089e-002 -1.087779e+000 0 0 0
-2.520442e-003 -4.593510e-002 -1.095386e+000 0 0 0
3.135936e-004 -5.240889e-002 -1.101881e+000 0 0 0
3.590713e-003 -6.261299e-002 -1.109128e+000 0 0 0
8.003932e-003 -7.234731e-002 -1.113310e+000 0 0 0
1.384350e-002 -8.415551e-002 -1.114542e+000 0 0 0
2.825718e-002 -9.867020e-002 -1.113092e+000 0 0 0
4.001665e-002 -1.070377e-001 -1.111029e+000 0 0 0
5.230286e-002 -1.120851e-001 -1.107611e+000 0 0 0
6.357182e-002 -1.157112e-001 -1.105134e+000 0 0 0
7.312713e-002 -1.186495e-001 -1.101966e+000 0 0 0
8.511785e-002 -1.219955e-001 -1.098903e+000 0 0 0
9.556764e-002 -1.245228e-001 -1.096725e+000 0 0 0
1.064131e-001 -1.267533e-001 -1.092184e+000 0 0 0
1.223112e-001 -1.293675e-001 -1.083976e+000 0 0 0
1.346319e-001 -1.286644e-001 -1.078280e+000 0 0 0
1.498932e-001 -1.267143e-001 -1.071495e+000 0 0 0
1.576913e-001 -1.256923e-001 -1.070465e+000 0 0 0
1.695785e-001 -1.257501e-001 -1.071626e+000 0 0 0
1.733157e-001 -1.272159e-001 -1.074869e+000 0 0 0
1.732540e-001 -1.320239e-001 -1.081677e+000 0 0 0
1.707280e-001 -1.367560e-001 -1.090798e+000 0 0 0
1.402374e-001 -1.457142e-001 -1.132799e+000 0 0 0
1.306551e-001 -1.472409e-001 -1.141618e+000 0 0 0
1.147330e-001 -1.494216e-001 -1.150545e+000 0 0 0
1.059966e-001 -1.500595e-001 -1.153015e+000 0 0 0
8.955233e-002 -1.500501e-001 -1.158907e+000 0 0 0
7.314171e-002 -1.471263e-001 -1.158798e+000 0 0 0
6.577324e-002 -1.454049e-001 -1.164234e+000 0 0 0
5.192511e-002 -1.404904e-001 -1.163802e+000 0 0 0
4.412566e-002 -1.368887e-001 -1.162482e+000 0 0 0
3.821931e-002 -1.318042e-001 -1.159436e+000 0 0 0
3.284852e-002 -1.211787e-001 -1.154291e+000 0 0 0
2.942765e-002 -1.123423e-001 -1.150684e+000 0 0 0
2.417885e-002 -1.024356e-001 -1.146312e+000 0 0 0
1.826457e-002 -9.243003e-002 -1.142138e+000 0 0 0
1.043579e-002 -7.904850e-002 -1.139202e+000 0 0 0
4.413190e-003 -6.958397e-002 -1.137136e+000 0 0 0
-2.043424e-003 -6.030789e-002 -1.134568e+000 0 0 0
-9.363642e-003 -5.000329e-002 -1.132669e+000 0 0 0
-1.891261e-002 -3.694270e-002 -1.130176e+000 0 0 0
-2.522685e-002 -2.725363e-002 -1.127548e+000 0 0 0
-3.100001e-002 -1.498838e-002 -1.124309e+000 0 0 0
-3.592449e-002 -7.554909e-003 -1.124328e+000 0 0 0
-3.744897e-002 -3.575047e-003 -1.125424e+000 0 0 0
-3.836787e-002 -2.223594e-003 -1.125236e+000 0 0 0
4.713249e-002 -8.741429e-002 -1.094793e+000 0 0 0
5.044096e-002 -8.706998e-002 -1.097507e+000 0 0 0
5.266856e-002 -8.612915e-002 -1.098473e+000 0 0 0
5.346618e-002 -8.614085e-002 -1.100693e+000 0 0 0
5.249211e-002 -8.660617e-002 -1.099926e+000 0 0 0
5.071019e-002 -8.742757e-002 -1.097206e+000 0 0 0
4.510893e-002 -8.712546e-002 -1.090312e+000 0 0 0
3.618875e-002 -8.430925e-002 -1.082402e+000 0 0 0
2.431435e-002 -7.525953e-002 -1.074195e+000 0 0 0
1.706423e-002 -6.448191e-002 -1.073550e+000 0 0 0
1.204522e-002 -5.460589e-002 -1.074004e+000 0 0 0
7.589900e-003 -4.938433e-002 -1.073023e+000 0 0 0
6.953753e-003 -4.708522e-002 -1.073447e+000 0 0 0
9.163846e-003 -4.702672e-002 -1.072850e+000 0 0 0
9.819736e-003 -4.693623e-002 -1.073603e+000 0 0 0
1.155923e-002 -4.678572e-002 -1.074653e+000 0 0 0
1.247307e-002 -4.668675e-002 -1.075341e+000 0 0 0
1.261889e-002 -4.671158e-002 -1.075447e+000 0 0 0
1.340801e-002 -4.674048e-002 -1.074838e+000 0 0 0
1.355990e-002 -4.658749e-002 -1.075290e+000 0 0 0
1.385271e-002 -4.661457e-002 -1.075505e+000 0 0 0
1.355990e-002 -4.658749e-002 -1.075290e+000 0 0 0
1.343263e-002 -4.668951e-002 -1.075796e+000 0 0 0
1.409927e-002 -4.634666e-002 -1.075712e+000 0 0 0
1.368403e-002 -4.643099e-002 -1.075396e+000 0 0 0
1.335019e-002 -4.655250e-002 -1.075747e+000 0 0 0
1.332970e-002 -4.647091e-002 -1.075129e+000 0 0 0
1.345223e-002 -4.652731e-002 -1.074954e+000 0 0 0
1.332234e-002 -4.647259e-002 -1.074862e+000 0 0 0
1.332970e-002 -4.647091e-002 -1.075129e+000 0 0 0
1.332970e-002 -4.647091e-002 -1.075129e+000 0 0 0
1.332970e-002 -4.647091e-002 -1.075129e+000 0 0 0
1.345223e-002 -4.652731e-002 -1.074954e+000 0 0 0
1.367657e-002 -4.643268e-002 -1.075129e+000 0 0 0
1.367657e-002 -4.643268e-002 -1.075129e+000 0 0 0
1.367657e-002 -4.643268e-002 -1.075129e+000 0 0 0
1.356070e-002 -4.639322e-002 -1.075046e+000 0 0 0
1.356813e-002 -4.639153e-002 -1.075313e+000 0 0 0
1.356813e-002 -4.639153e-002 -1.075313e+000 0 0 0
1.343534e-002 -4.640461e-002 -1.075213e+000 0 0 0
1.348966e-002 -4.631820e-002 -1.075505e+000 0 0 0
1.348783e-002 -4.609362e-002 -1.075768e+000 0 0 0
1.306342e-002 -4.551881e-002 -1.076828e+000 0 0 0
1.168461e-002 -4.456307e-002 -1.079084e+000 0 0 0
1.032750e-002 -4.240192e-002 -1.081135e+000 0 0 0
1.003299e-002 -3.556965e-002 -1.092083e+000 0 0 0
5.698580e-003 -2.759666e-002 -1.099457e+000 0 0 0
1.955236e-003 -2.040182e-002 -1.105593e+000 0 0 0
-2.458671e-003 -1.124539e-002 -1.112033e+000 0 0 0
-5.510332e-003 -6.713324e-003 -1.113605e+000 0 0 0
-5.328414e-003 -7.011998e-005 -1.117136e+000 0 0 0
-6.377727e-003 4.559782e-003 -1.118521e+000 0 0 0
-8.757063e-003 8.458873e-003 -1.119775e+000 0 0 0
-9.132469e-003 1.026044e-002 -1.120862e+000 0 0 0
-1.118840e-002 9.999828e-003 -1.120639e+000 0 0 0
-1.583235e-002 8.560329e-003 -1.118937e+000 0 0 0
-2.597916e-002 9.237203e-003 -1.115360e+000 0 0 0
-3.331518e-002 1.138605e-002 -1.111208e+000 0 0 0
-3.902689e-002 1.424774e-002 -1.108712e+000 0 0 0
-4.161754e-002 1.595829e-002 -1.107349e+000 0 0 0
-4.228918e-002 1.619120e-002 -1.106744e+000 0 0 0
-4.204922e-002 1.598243e-002 -1.106993e+000 0 0 0
-4.189933e-002 1.619504e-002 -1.107067e+000 0 0 0
-4.223084e-002 1.660420e-002 -1.107008e+000 0 0 0
-4.224770e-002 1.691492e-002 -1.107377e+000 0 0 0
-4.211053e-002 1.668482e-002 -1.107110e+000 0 0 0
-4.197391e-002 1.690588e-002 -1.107603e+000 0 0 0
-4.145319e-002 1.782817e-002 -1.108446e+000 0 0 0
-4.071979e-002 2.088176e-002 -1.110224e+000 0 0 0
-4.029172e-002 2.733596e-002 -1.113409e+000 0 0 0
-3.835084e-002 3.556472e-002 -1.118382e+000 0 0 0
-3.536193e-002 3.639054e-002 -1.121121e+000 0 0 0
-3.269112e-002 3.553443e-002 -1.122607e+000 0 0 0
-3.114628e-002 3.414761e-002 -1.122346e+000 0 0 0
-3.099871e-002 3.285622e-002 -1.121699e+000 0 0 0
-3.163863e-002 3.233546e-002 -1.120630e+000 0 0 0
-3.204110e-002 3.226419e-002 -1.120293e+000 0 0 0
-3.269172e-002 3.193947e-002 -1.119812e+000 0 0 0
-3.280498e-002 3.200827e-002 -1.119720e+000 0 0 0
-3.331431e-002 3.115878e-002 -1.119007e+000 0 0 0
-3.352334e-002 3.110773e-002 -1.118832e+000 0 0 0
-3.321647e-002 3.108140e-002 -1.119087e+000 0 0 0
-3.295814e-002 3.098362e-002 -1.119299e+000 0 0 0
-3.285504e-002 3.083592e-002 -1.119476e+000 0 0 0
-3.309604e-002 2.860246e-002 -1.117563e+000 0 0 0
-3.262632e-002 2.543558e-002 -1.116532e+000 0 0 0
-3.166100e-002 2.272183e-002 -1.115513e+000 0 0 0
-3.079149e-002 1.955343e-002 -1.114449e+000 0 0 0
-3.072870e-002 1.666387e-002 -1.113330e+000 0 0 0
-3.078311e-002 1.498215e-002 -1.112923e+000 0 0 0
-3.073389e-002 1.458807e-002 -1.112496e+000 0 0 0
-3.079078e-002 1.485329e-002 -1.112911e+000 0 0 0
-3.090344e-002 1.493124e-002 -1.112822e+000 0 0 0
-3.158572e-002 1.503568e-002 -1.112265e+000 0 0 0
-3.358101e-002 1.576024e-002 -1.112444e+000 0 0 0
-3.393289e-002 1.589362e-002 -1.112694e+000 0 0 0
-3.458063e-002 1.583349e-002 -1.113192e+000 0 0 0
-3.429038e-002 1.587776e-002 -1.113237e+000 0 0 0
-3.425499e-002 1.571073e-002 -1.113036e+000 0 0 0
-3.440610e-002 1.554019e-002 -1.112697e+000 0 0 0
-3.447945e-002 1.502584e-002 -1.112684e+000 0 0 0
-3.384288e-002 1.449445e-002 -1.112703e+000 0 0 0
-3.359188e-002 1.479373e-002 -1.112700e+000 0 0 0
-3.211481e-002 1.576875e-002 -1.113986e+000 0 0 0
-3.086334e-002 1.691911e-002 -1.114709e+000 0 0 0
-2.991483e-002 1.816323e-002 -1.115991e+000 0 0 0
-2.948401e-002 1.823003e-002 -1.116349e+000 0 0 0
-2.929018e-002 1.824585e-002 -1.116260e+000 0 0 0
-2.916172e-002 1.879393e-002 -1.116656e+000 0 0 0
-2.916930e-002 1.918060e-002 -1.116391e+000 0 0 0
-2.930305e-002 1.949556e-002 -1.116924e+000 0 0 0
-2.915602e-002 2.100061e-002 -1.117453e+000 0 0 0
-2.918369e-002 2.197495e-002 -1.117649e+000 0 0 0
-2.871218e-002 2.286145e-002 -1.118378e+000 0 0 0
-2.874800e-002 2.332127e-002 -1.118922e+000 0 0 0
-2.918136e-002 2.216759e-002 -1.117561e+000 0 0 0
-2.915719e-002 2.160861e-002 -1.117389e+000 0 0 0
-2.969707e-002 1.991697e-002 -1.115964e+000 0 0 0
-2.961808e-002 1.818971e-002 -1.115282e+000 0 0 0
-3.042481e-002 1.659520e-002 -1.113577e+000 0 0 0
-3.003602e-002 1.646996e-002 -1.113892e+000 0 0 0
-2.969896e-002 1.725184e-002 -1.114390e+000 0 0 0
-2.915338e-002 1.873131e-002 -1.115259e+000 0 0 0
-2.822762e-002 2.001152e-002 -1.116496e+000 0 0 0
-2.825429e-002 2.035388e-002 -1.116937e+000 0 0 0
-2.876975e-002 1.967887e-002 -1.116120e+000 0 0 0
-2.912567e-002 1.829095e-002 -1.115242e+000 0 0 0
-2.885421e-002 1.746807e-002 -1.114925e+000 0 0 0
-2.845813e-002 1.896087e-002 -1.115805e+000 0 0 0
-2.778347e-002 1.975582e-002 -1.116513e+000 0 0 0
-2.797582e-002 1.868127e-002 -1.116037e+000 0 0 0
-2.799849e-002 1.611180e-002 -1.115555e+000 0 0 0
-2.794495e-002 8.906975e-003 -1.114800e+000 0 0 0
-2.607849e-002 -4.151013e-004 -1.113690e+000 0 0 0
-2.364408e-002 -1.023818e-002 -1.107945e+000 0 0 0
-2.305879e-002 -1.897221e-002 -1.104980e+000 0 0 0
-2.394002e-002 -2.853452e-002 -1.102319e+000 0 0 0
-2.255652e-002 -4.128203e-002 -1.097730e+000 0 0 0
-2.117880e-002 -4.741522e-002 -1.094555e+000 0 0 0
-1.860226e-002 -4.966952e-002 -1.092333e+000 0 0 0
-1.530819e-002 -4.796813e-002 -1.092386e+000 0 0 0
-1.560119e-002 -4.711117e-002 -1.092897e+000 0 0 0
-1.572993e-002 -4.703813e-002 -1.092271e+000 0 0 0
-1.572578e-002 -4.711803e-002 -1.091914e+000 0 0 0
-1.445673e-002 -4.625273e-002 -1.093582e+000 0 0 0
-1.273712e-002 -4.533031e-002 -1.094308e+000 0 0 0
-6.513868e-003 -4.493679e-002 -1.096125e+000 0 0 0
1.497710e-003 -4.485700e-002 -1.098694e+000 0 0 0
6.175055e-003 -4.545177e-002 -1.096865e+000 0 0 0
9.405847e-003 -4.584536e-002 -1.096324e+000 0 0 0
1.185030e-002 -4.545398e-002 -1.095361e+000 0 0 0
1.150208e-002 -4.463644e-002 -1.095000e+000 0 0 0
5.378559e-003 -4.260055e-002 -1.095017e+000 0 0 0
-3.883050e-003 -3.840856e-002 -1.100511e+000 0 0 0
-1.707252e-002 -3.186248e-002 -1.103664e+000 0 0 0
-3.626105e-002 -2.041841e-002 -1.103416e+000 0 0 0
-4.358177e-002 -1.373996e-002 -1.102364e+000 0 0 0
-4.922247e-002 -8.903484e-003 -1.101350e+000 0 0 0
-5.312951e-002 -5.673007e-003 -1.100727e+000 0 0 0
-5.385570e-002 -5.248987e-003 -1.099958e+000 0 0 0
-5.354957e-002 -6.613506e-003 -1.099398e+000 0 0 0
-5.263219e-002 -7.686002e-003 -1.098049e+000 0 0 0
-5.225766e-002 -7.889323e-003 -1.097873e+000 0 0 0
-5.201122e-002 -7.795182e-003 -1.098082e+000 0 0 0
-5.129168e-002 -7.336850e-003 -1.099177e+000 0 0 0
-5.131313e-002 -6.507943e-003 -1.100698e+000 0 0 0
-5.106937e-002 -4.846877e-003 -1.102312e+000 0 0 0
-4.979410e-002 1.171913e-003 -1.107163e+000 0 0 0
-4.816005e-002 1.057238e-002 -1.112421e+000 0 0 0
-4.762074e-002 2.893917e-002 -1.123076e+000 0 0 0
-4.671095e-002 3.707096e-002 -1.126208e+000 0 0 0
-4.595307e-002 3.847307e-002 -1.128085e+000 0 0 0
-4.663191e-002 3.615459e-002 -1.126514e+000 0 0 0
-4.754223e-002 3.272407e-002 -1.125369e+000 0 0 0
-4.703969e-002 2.254928e-002 -1.122478e+000 0 0 0
-4.542694e-002 6.215405e-003 -1.117479e+000 0 0 0
-3.931179e-002 -1.369588e-002 -1.107058e+000 0 0 0
-3.129221e-002 -2.831811e-002 -1.099005e+000 0 0 0
-2.681671e-002 -3.536920e-002 -1.088894e+000 0 0 0
-2.589604e-002 -3.652545e-002 -1.087704e+000 0 0 0
-2.693043e-002 -3.597196e-002 -1.087406e+000 0 0 0
-2.788940e-002 -3.530066e-002 -1.088370e+000 0 0 0
-2.848390e-002 -3.460929e-002 -1.089646e+000 0 0 0
-2.863917e-002 -3.405998e-002 -1.089736e+000 0 0 0
-2.988652e-002 -3.249368e-002 -1.089963e+000 0 0 0
-3.044818e-002 -3.170063e-002 -1.090201e+000 0 0 0
-3.044818e-002 -3.170063e-002 -1.090201e+000 0 0 0
-3.033118e-002 -3.168600e-002 -1.090056e+000 0 0 0
-3.019396e-002 -3.183386e-002 -1.090154e+000 0 0 0
-3.012502e-002 -3.190040e-002 -1.090204e+000 0 0 0
-2.984896e-002 -3.200167e-002 -1.090209e+000 0 0 0
-2.970967e-002 -3.194499e-002 -1.090531e+000 0 0 0
-3.028368e-002 -3.156024e-002 -1.090343e+000 0 0 0
-3.012040e-002 -3.126036e-002 -1.090533e+000 0 0 0
-3.023815e-002 -3.131954e-002 -1.090434e+000 0 0 0
-3.012373e-002 -3.133430e-002 -1.090524e+000 0 0 0
-3.012419e-002 -3.120019e-002 -1.090594e+000 0 0 0
-3.011356e-002 -3.091481e-002 -1.090909e+000 0 0 0
-3.011875e-002 -3.085892e-002 -1.091065e+000 0 0 0
-3.012630e-002 -3.084154e-002 -1.091469e+000 0 0 0
-3.011875e-002 -3.085892e-002 -1.091065e+000 0 0 0
-3.023816e-002 -3.076763e-002 -1.091385e+000 0 0 0
-3.024678e-002 -3.066983e-002 -1.091629e+000 0 0 0
-3.024678e-002 -3.066983e-002 -1.091629e+000 0 0 0
-3.023816e-002 -3.076763e-002 -1.091385e+000 0 0 0
-3.024678e-002 -3.066983e-002 -1.091629e+000 0 0 0
-3.024678e-002 -3.066983e-002 -1.091629e+000 0 0 0
-3.024278e-002 -3.068204e-002 -1.091425e+000 0 0 0
-3.023458e-002 -3.070414e-002 -1.090998e+000 0 0 0
-3.023999e-002 -3.066193e-002 -1.091204e+000 0 0 0
-3.023458e-002 -3.070414e-002 -1.090998e+000 0 0 0
-3.023921e-002 -3.060715e-002 -1.091006e+000 0 0 0
-3.023921e-002 -3.060715e-002 -1.091006e+000 0 0 0
-3.023921e-002 -3.060715e-002 -1.091006e+000 0 0 0
-3.023921e-002 -3.060715e-002 -1.091006e+000 0 0 0
-3.029313e-002 -3.052585e-002 -1.090970e+000 0 0 0
-3.024678e-002 -3.066983e-002 -1.091629e+000 0 0 0
-3.023921e-002 -3.060715e-002 -1.091006e+000 0 0 0
-3.030535e-002 -3.054871e-002 -1.091757e+000 0 0 0
-3.023921e-002 -3.060715e-002 -1.091006e+000 0 0 0
-3.023921e-002 -3.060715e-002 -1.091006e+000 0 0 0
-3.023921e-002 -3.060715e-002 -1.091006e+000 0 0 0
-3.023921e-002 -3.060715e-002 -1.091006e+000 0 0 0
-3.022938e-002 -3.073715e-002 -1.090779e+000 0 0 0
-3.023921e-002 -3.060715e-002 -1.091006e+000 0 0 0
-3.023403e-002 -3.058295e-002 -1.090631e+000 0 0 0
-3.023403e-002 -3.058295e-002 -1.090631e+000 0 0 0
-3.029315e-002 -3.046862e-002 -1.090813e+000 0 0 0
-3.029315e-002 -3.046862e-002 -1.090813e+000 0 0 0
-3.029797e-002 -3.041964e-002 -1.090965e+000 0 0 0
-3.030497e-002 -3.049839e-002 -1.091596e+000 0 0 0
-3.029315e-002 -3.046862e-002 -1.090813e+000 0 0 0
-3.029315e-002 -3.046862e-002 -1.090813e+000 0 0 0
-3.029315e-002 -3.046862e-002 -1.090813e+000 0 0 0
-3.016782e-002 -3.043375e-002 -1.091361e+000 0 0 0
-2.937672e-002 -2.946972e-002 -1.092987e+000 0 0 0
-2.982075e-002 -2.630041e-002 -1.097586e+000 0 0 0
-3.302821e-002 -2.036157e-002 -1.103484e+000 0 0 0
-3.674522e-002 -1.267095e-002 -1.108074e+000 0 0 0
-4.257093e-002 -4.178894e-003 -1.110452e+000 0 0 0
-4.623540e-002 2.356752e-003 -1.111357e+000 0 0 0
-5.116507e-002 6.055194e-003 -1.108683e+000 0 0 0
-5.401734e-002 8.390174e-003 -1.107413e+000 0 0 0
-5.450639e-002 8.565038e-003 -1.107027e+000 0 0 0
-5.464974e-002 8.116509e-003 -1.106556e+000 0 0 0
-5.447652e-002 7.873158e-003 -1.106772e+000 0 0 0
-5.448221e-002 7.964747e-003 -1.106777e+000 0 0 0
-5.513096e-002 8.088577e-003 -1.106401e+000 0 0 0
-5.843986e-002 9.552362e-003 -1.105589e+000 0 0 0
-6.339978e-002 1.425200e-002 -1.101547e+000 0 0 0
-6.733574e-002 1.805356e-002 -1.099027e+000 0 0 0
-6.997344e-002 2.086325e-002 -1.096835e+000 0 0 0
-7.131643e-002 2.227457e-002 -1.094584e+000 0 0 0
-7.169778e-002 2.245498e-002 -1.094154e+000 0 0 0
-7.157106e-002 2.220029e-002 -1.094043e+000 0 0 0
-7.156281e-002 2.213040e-002 -1.093977e+000 0 0 0
-7.155409e-002 2.203593e-002 -1.093931e+000 0 0 0
-7.139503e-002 2.191401e-002 -1.094061e+000 0 0 0
-7.130412e-002 2.178962e-002 -1.094259e+000 0 0 0
-7.129346e-002 2.198518e-002 -1.094149e+000 0 0 0
-7.127455e-002 2.175044e-002 -1.093774e+000 0 0 0
-7.127107e-002 2.135116e-002 -1.093800e+000 0 0 0
-7.109248e-002 2.056819e-002 -1.093726e+000 0 0 0
-7.033752e-002 1.975534e-002 -1.094162e+000 0 0 0
-6.881785e-002 1.764080e-002 -1.094652e+000 0 0 0
-6.652189e-002 1.234765e-002 -1.094311e+000 0 0 0
-6.204850e-002 5.687129e-003 -1.095581e+000 0 0 0
-5.636267e-002 -2.861089e-003 -1.095833e+000 0 0 0
-4.816160e-002 -1.191378e-002 -1.097116e+000 0 0 0
-4.074103e-002 -2.390157e-002 -1.093075e+000 0 0 0
-2.835635e-002 -4.033511e-002 -1.080294e+000 0 0 0
-2.359996e-002 -4.500281e-002 -1.075802e+000 0 0 0
-1.649539e-002 -5.194409e-002 -1.070848e+000 0 0 0
-1.284877e-002 -5.717415e-002 -1.069902e+000 0 0 0
-1.097346e-002 -6.818827e-002 -1.069303e+000 0 0 0
-8.253571e-003 -7.891351e-002 -1.068458e+000 0 0 0
-8.138374e-003 -8.879315e-002 -1.067361e+000 0 0 0
-8.256172e-003 -9.907089e-002 -1.067855e+000 0 0 0
-8.265820e-003 -1.016104e-001 -1.068066e+000 0 0 0
-6.529214e-003 -1.016641e-001 -1.071079e+000 0 0 0
-4.300824e-003 -9.973645e-002 -1.073603e+000 0 0 0
-5.201988e-003 -9.792325e-002 -1.074746e+000 0 0 0
-7.818093e-003 -9.506577e-002 -1.074083e+000 0 0 0
-9.844349e-003 -8.765087e-002 -1.075413e+000 0 0 0
-1.160911e-002 -7.728555e-002 -1.077771e+000 0 0 0
-1.774712e-002 -6.258105e-002 -1.079446e+000 0 0 0
-2.230131e-002 -4.961195e-002 -1.083546e+000 0 0 0
-2.588009e-002 -4.198341e-002 -1.085398e+000 0 0 0
-2.616163e-002 -3.649606e-002 -1.086979e+000 0 0 0
-2.652721e-002 -3.476011e-002 -1.087216e+000 0 0 0
-2.725513e-002 -3.494629e-002 -1.084875e+000 0 0 0
-2.792814e-002 -3.472676e-002 -1.084403e+000 0 0 0
-2.856382e-002 -3.432056e-002 -1.084011e+000 0 0 0
-2.856382e-002 -3.432056e-002 -1.084011e+000 0 0 0
-2.855369e-002 -3.441643e-002 -1.084011e+000 0 0 0
-2.873555e-002 -3.432006e-002 -1.083875e+000 0 0 0
-2.890888e-002 -3.424625e-002 -1.083635e+000 0 0 0
-2.890821e-002 -3.414321e-002 -1.083296e+000 0 0 0
-2.890821e-002 -3.414321e-002 -1.083296e+000 0 0 0
-2.890888e-002 -3.424625e-002 -1.083635e+000 0 0 0
-2.902003e-002 -3.408397e-002 -1.083213e+000 0 0 0
-2.917872e-002 -3.397165e-002 -1.083032e+000 0 0 0
-2.917872e-002 -3.397165e-002 -1.083032e+000 0 0 0
-2.966902e-002 -3.374016e-002 -1.082473e+000 0 0 0
-3.001111e-002 -3.349910e-002 -1.082029e+000 0 0 0
-3.007165e-002 -3.349482e-002 -1.082656e+000 0 0 0
-3.007122e-002 -3.344460e-002 -1.082496e+000 0 0 0
-3.007481e-002 -3.349695e-002 -1.082849e+000 0 0 0
-3.017186e-002 -3.343051e-002 -1.082778e+000 0 0 0
-3.017186e-002 -3.343051e-002 -1.082778e+000 0 0 0
-3.017122e-002 -3.337802e-002 -1.082600e+000 0 0 0
-3.017186e-002 -3.343051e-002 -1.082778e+000 0 0 0
-3.006952e-002 -3.357260e-002 -1.082739e+000 0 0 0
-3.006952e-002 -3.357260e-002 -1.082739e+000 0 0 0
-2.999410e-002 -3.358429e-002 -1.082944e+000 0 0 0
-2.999373e-002 -3.363688e-002 -1.083063e+000 0 0 0
-2.999862e-002 -3.356809e-002 -1.083169e+000 0 0 0
-3.007481e-002 -3.349695e-002 -1.082849e+000 0 0 0
-3.007897e-002 -3.349905e-002 -1.083101e+000 0 0 0
-2.999862e-002 -3.356809e-002 -1.083169e+000 0 0 0
-3.000256e-002 -3.357936e-002 -1.083434e+000 0 0 0
-3.000668e-002 -3.355859e-002 -1.083623e+000 0 0 0
-3.000668e-002 -3.355859e-002 -1.083623e+000 0 0 0
-3.000725e-002 -3.349683e-002 -1.083491e+000 0 0 0
-3.011829e-002 -3.342296e-002 -1.083409e+000 0 0 0
-3.011829e-002 -3.342296e-002 -1.083409e+000 0 0 0
-3.011829e-002 -3.342296e-002 -1.083409e+000 0 0 0
-3.011829e-002 -3.342296e-002 -1.083409e+000 0 0 0
-3.012326e-002 -3.343414e-002 -1.083732e+000 0 0 0
-3.012840e-002 -3.340185e-002 -1.083950e+000 0 0 0
-3.019056e-002 -3.330427e-002 -1.084373e+000 0 0 0
-3.019238e-002 -3.333619e-002 -1.084566e+000 0 0 0
-3.042997e-002 -3.321052e-002 -1.084388e+000 0 0 0
-3.058719e-002 -3.321025e-002 -1.084264e+000 0 0 0
-3.058719e-002 -3.321025e-002 -1.084264e+000 0 0 0
-3.058719e-002 -3.321025e-002 -1.084264e+000 0 0 0
-3.058719e-002 -3.321025e-002 -1.084264e+000 0 0 0
-3.058719e-002 -3.321025e-002 -1.084264e+000 0 0 0
-3.059253e-002 -3.312301e-002 -1.084343e+000 0 0 0
-3.060129e-002 -3.300582e-002 -1.084541e+000 0 0 0
-3.059504e-002 -3.304967e-002 -1.084296e+000 0 0 0
-3.060479e-002 -3.290952e-002 -1.084490e+000 0 0 0
-3.060129e-002 -3.300582e-002 -1.084541e+000 0 0 0
-3.060479e-002 -3.290952e-002 -1.084490e+000 0 0 0
-3.060479e-002 -3.290952e-002 -1.084490e+000 0 0 0
-3.061170e-002 -3.291742e-002 -1.084540e+000 0 0 0
-3.061170e-002 -3.291742e-002 -1.084540e+000 0 0 0
-3.061170e-002 -3.291742e-002 -1.084540e+000 0 0 0
-3.075815e-002 -3.282092e-002 -1.084376e+000 0 0 0
-3.091775e-002 -3.270870e-002 -1.084254e+000 0 0 0
-3.091775e-002 -3.270870e-002 -1.084254e+000 0 0 0
-3.091775e-002 -3.270870e-002 -1.084254e+000 0 0 0
-3.107326e-002 -3.267170e-002 -1.084134e+000 0 0 0
-3.140684e-002 -3.230741e-002 -1.083821e+000 0 0 0
-3.140809e-002 -3.224340e-002 -1.083728e+000 0 0 0
-3.141494e-002 -3.230210e-002 -1.084252e+000 0 0 0
-3.124600e-002 -3.270093e-002 -1.083995e+000 0 0 0
-3.141494e-002 -3.230210e-002 -1.084252e+000 0 0 0
-3.141494e-002 -3.230210e-002 -1.084252e+000 0 0 0
-3.145883e-002 -3.246266e-002 -1.084306e+000 0 0 0
-3.128835e-002 -3.234638e-002 -1.084349e+000 0 0 0
-3.113051e-002 -3.233178e-002 -1.084475e+000 0 0 0
-3.114126e-002 -3.220054e-002 -1.084740e+000 0 0 0
-3.116944e-002 -3.181836e-002 -1.085335e+000 0 0 0
-3.130318e-002 -3.064527e-002 -1.088148e+000 0 0 0
-3.210483e-002 -2.830956e-002 -1.090772e+000 0 0 0
-3.372083e-002 -2.542431e-002 -1.095496e+000 0 0 0
-3.626916e-002 -2.310827e-002 -1.096604e+000 0 0 0
-4.047596e-002 -1.971218e-002 -1.097448e+000 0 0 0
-4.412977e-002 -1.589160e-002 -1.097586e+000 0 0 0
-4.703637e-002 -1.333742e-002 -1.097345e+000 0 0 0
-4.924924e-002 -1.120417e-002 -1.096503e+000 0 0 0
-4.959336e-002 -1.075762e-002 -1.096293e+000 0 0 0
-5.064666e-002 -1.055116e-002 -1.094625e+000 0 0 0
-5.094999e-002 -9.670434e-003 -1.094281e+000 0 0 0
-5.110484e-002 -9.371070e-003 -1.095159e+000 0 0 0
-5.080368e-002 -9.131991e-003 -1.095596e+000 0 0 0
-5.090582e-002 -8.530799e-003 -1.096508e+000 0 0 0
-5.080318e-002 -8.562031e-003 -1.096358e+000 0 0 0
-5.044272e-002 -9.399925e-003 -1.095122e+000 0 0 0
-4.978333e-002 -1.001218e-002 -1.095105e+000 0 0 0
-4.912209e-002 -1.051514e-002 -1.095587e+000 0 0 0
-4.833444e-002 -1.144340e-002 -1.095368e+000 0 0 0
-4.769557e-002 -1.220970e-002 -1.095495e+000 0 0 0
-4.579499e-002 -1.445348e-002 -1.095459e+000 0 0 0
-4.177071e-002 -1.886063e-002 -1.093840e+000 0 0 0
-3.238562e-002 -2.803946e-002 -1.090554e+000 0 0 0
-2.094869e-002 -3.576956e-002 -1.087894e+000 0 0 0
-1.427075e-002 -3.931581e-002 -1.088446e+000 0 0 0
-1.570947e-002 -3.812452e-002 -1.090266e+000 0 0 0
-1.778333e-002 -3.610624e-002 -1.090066e+000 0 0 0
-1.790645e-002 -3.578418e-002 -1.090707e+000 0 0 0
-1.612455e-002 -3.597785e-002 -1.091425e+000 0 0 0
-1.557623e-002 -3.630627e-002 -1.091324e+000 0 0 0
-1.426003e-002 -3.663939e-002 -1.092131e+000 0 0 0
-1.426670e-002 -3.649685e-002 -1.092672e+000 0 0 0
-1.426003e-002 -3.663939e-002 -1.092131e+000 0 0 0
-1.443441e-002 -3.666519e-002 -1.090783e+000 0 0 0
-1.448059e-002 -3.637609e-002 -1.092514e+000 0 0 0
-1.369971e-002 -3.582996e-002 -1.093206e+000 0 0 0
-1.439151e-002 -3.558826e-002 -1.092634e+000 0 0 0
-1.515935e-002 -3.560610e-002 -1.092137e+000 0 0 0
-1.529977e-002 -3.565153e-002 -1.091916e+000 0 0 0
-1.547169e-002 -3.553321e-002 -1.091569e+000 0 0 0
-1.530065e-002 -3.562360e-002 -1.091695e+000 0 0 0
-1.481910e-002 -3.562573e-002 -1.092073e+000 0 0 0
-1.424346e-002 -3.516452e-002 -1.092562e+000 0 0 0
-1.465478e-002 -3.526559e-002 -1.092454e+000 0 0 0
-1.304378e-002 -3.578139e-002 -1.093077e+000 0 0 0
-1.133823e-002 -3.660142e-002 -1.092694e+000 0 0 0
-9.695426e-003 -3.732705e-002 -1.092820e+000 0 0 0
-8.407982e-003 -3.777174e-002 -1.093563e+000 0 0 0
-8.403071e-003 -3.793949e-002 -1.093101e+000 0 0 0
-9.292951e-003 -3.797961e-002 -1.091999e+000 0 0 0
-9.823269e-003 -3.803600e-002 -1.091581e+000 0 0 0
-9.636718e-003 -3.838295e-002 -1.091529e+000 0 0 0
-9.178985e-003 -3.900329e-002 -1.090685e+000 0 0 0
-9.453085e-003 -3.878909e-002 -1.091172e+000 0 0 0
-9.455067e-003 -3.866923e-002 -1.091941e+000 0 0 0
-9.446923e-003 -3.886989e-002 -1.091800e+000 0 0 0
-8.294835e-003 -3.969004e-002 -1.091591e+000 0 0 0
-7.487921e-003 -3.939986e-002 -1.091802e+000 0 0 0
-7.905287e-003 -3.938323e-002 -1.091491e+000 0 0 0
-8.688801e-003 -3.976629e-002 -1.091256e+000 0 0 0
-9.573501e-003 -3.977984e-002 -1.090323e+000 0 0 0
-9.870972e-003 -3.937947e-002 -1.090813e+000 0 0 0
-9.864395e-003 -3.953409e-002 -1.090785e+000 0 0 0
-9.867196e-003 -3.946500e-002 -1.090833e+000 0 0 0
-9.985126e-003 -3.931116e-002 -1.090730e+000 0 0 0
-9.989074e-003 -3.922327e-002 -1.090691e+000 0 0 0
-9.996766e-003 -3.906537e-002 -1.090459e+000 0 0 0
-1.012668e-002 -3.878403e-002 -1.090647e+000 0 0 0
-1.012668e-002 -3.878403e-002 -1.090647e+000 0 0 0
-1.031052e-002 -3.858232e-002 -1.090651e+000 0 0 0
-9.878196e-003 -3.837580e-002 -1.090478e+000 0 0 0
-1.013197e-002 -3.869493e-002 -1.090247e+000 0 0 0
-1.012870e-002 -3.875555e-002 -1.090425e+000 0 0 0
-9.748792e-003 -3.918839e-002 -1.089429e+000 0 0 0
-9.031235e-003 -3.955955e-002 -1.088319e+000 0 0 0
-8.734823e-003 -3.988795e-002 -1.088265e+000 0 0 0
-8.798544e-003 -4.038610e-002 -1.087984e+000 0 0 0
-8.798544e-003 -4.038610e-002 -1.087984e+000 0 0 0
-9.184470e-003 -4.049261e-002 -1.087832e+000 0 0 0
-8.790837e-003 -4.054142e-002 -1.088197e+000 0 0 0
-8.622319e-003 -4.049035e-002 -1.087924e+000 0 0 0
-8.425233e-003 -4.089282e-002 -1.089177e+000 0 0 0
-8.932892e-003 -4.112618e-002 -1.090252e+000 0 0 0
-7.373725e-003 -4.136649e-002 -1.091445e+000 0 0 0
-7.014945e-003 -4.100807e-002 -1.092316e+000 0 0 0
-8.421575e-003 -4.002790e-002 -1.090606e+000 0 0 0
-8.604965e-003 -4.015527e-002 -1.089654e+000 0 0 0
-8.609140e-003 -4.008768e-002 -1.090641e+000 0 0 0
-7.137375e-003 -4.101945e-002 -1.090412e+000 0 0 0
-5.256030e-003 -4.158200e-002 -1.090304e+000 0 0 0
-3.678040e-003 -4.165205e-002 -1.087501e+000 0 0 0
-2.801397e-003 -4.249263e-002 -1.087599e+000 0 0 0
-2.914739e-003 -4.294045e-002 -1.087761e+000 0 0 0
-3.913153e-003 -4.343499e-002 -1.087779e+000 0 0 0
-3.965543e-003 -4.345858e-002 -1.087698e+000 0 0 0
-3.913991e-003 -4.371246e-002 -1.087142e+000 0 0 0
-3.638625e-003 -4.394482e-002 -1.086581e+000 0 0 0
-4.031637e-003 -4.334733e-002 -1.086650e+000 0 0 0
-3.367138e-003 -4.379450e-002 -1.086261e+000 0 0 0
-3.699411e-003 -4.423241e-002 -1.085525e+000 0 0 0
-3.694532e-003 -4.427399e-002 -1.085840e+000 0 0 0
-1.977651e-003 -4.573684e-002 -1.087298e+000 0 0 0
-2.008679e-003 -4.582057e-002 -1.087346e+000 0 0 0
-1.322306e-003 -4.581987e-002 -1.088070e+000 0 0 0
-1.327735e-003 -4.575339e-002 -1.087853e+000 0 0 0
-1.274399e-003 -4.573042e-002 -1.088115e+000 0 0 0
-1.499024e-003 -4.548954e-002 -1.087862e+000 0 0 0
-1.150822e-003 -4.608132e-002 -1.089052e+000 0 0 0
-1.157758e-003 -4.605615e-002 -1.088581e+000 0 0 0
-1.118016e-003 -4.686668e-002 -1.087382e+000 0 0 0
-1.053535e-003 -4.706711e-002 -1.086950e+000 0 0 0
-9.378734e-004 -4.743554e-002 -1.087337e+000 0 0 0
-8.598178e-004 -4.861803e-002 -1.087747e+000 0 0 0
-7.810792e-004 -4.744989e-002 -1.087046e+000 0 0 0
-4.349663e-004 -4.657197e-002 -1.088888e+000 0 0 0
-7.324205e-004 -4.449058e-002 -1.089049e+000 0 0 0
-7.131569e-004 -4.160876e-002 -1.090203e+000 0 0 0
-2.865642e-004 -3.953041e-002 -1.091684e+000 0 0 0
5.234748e-004 -3.612560e-002 -1.094195e+000 0 0 0
1.899900e-003 -3.346537e-002 -1.096618e+000 0 0 0
4.566324e-003 -3.079595e-002 -1.097603e+000 0 0 0
6.247092e-003 -2.778257e-002 -1.099718e+000 0 0 0
8.041353e-003 -2.383077e-002 -1.102394e+000 0 0 0
1.121367e-002 -1.862472e-002 -1.105314e+000 0 0 0
1.370926e-002 -1.536605e-002 -1.108507e+000 0 0 0
1.461856e-002 -1.307459e-002 -1.109257e+000 0 0 0
1.552382e-002 -1.359343e-002 -1.109015e+000 0 0 0
1.571003e-002 -1.383809e-002 -1.109005e+000 0 0 0
1.585688e-002 -1.371629e-002 -1.109019e+000 0 0 0
1.642757e-002 -1.328068e-002 -1.109489e+000 0 0 0
1.615062e-002 -1.374743e-002 -1.109581e+000 0 0 0
1.707188e-002 -1.532640e-002 -1.110788e+000 0 0 0
1.744967e-002 -1.666855e-002 -1.111658e+000 0 0 0
1.941921e-002 -1.909489e-002 -1.113780e+000 0 0 0
2.035200e-002 -2.202698e-002 -1.115507e+000 0 0 0
2.288196e-002 -2.483179e-002 -1.118468e+000 0 0 0
2.457852e-002 -2.757367e-002 -1.120495e+000 0 0 0
2.692703e-002 -3.015076e-002 -1.122496e+000 0 0 0
2.836176e-002 -3.105402e-002 -1.123928e+000 0 0 0
2.874641e-002 -3.133826e-002 -1.124824e+000 0 0 0
2.822824e-002 -3.138489e-002 -1.124415e+000 0 0 0
2.662760e-002 -3.108616e-002 -1.122719e+000 0 0 0
2.552356e-002 -3.164967e-002 -1.120563e+000 0 0 0
2.281559e-002 -3.212263e-002 -1.115474e+000 0 0 0
1.996955e-002 -3.445375e-002 -1.108795e+000 0 0 0
1.967953e-002 -3.560384e-002 -1.106554e+000 0 0 0
1.855465e-002 -3.473512e-002 -1.105477e+000 0 0 0
1.800357e-002 -3.126350e-002 -1.105623e+000 0 0 0
1.826962e-002 -2.890783e-002 -1.103428e+000 0 0 0
2.105974e-002 -2.529164e-002 -1.102990e+000 0 0 0
2.286805e-002 -2.340823e-002 -1.103727e+000 0 0 0
2.390038e-002 -2.042316e-002 -1.103720e+000 0 0 0
2.622851e-002 -1.876408e-002 -1.101581e+000 0 0 0
2.918631e-002 -1.628416e-002 -1.101582e+000 0 0 0
3.152411e-002 -1.314553e-002 -1.103727e+000 0 0 0
2.958910e-002 -9.754866e-003 -1.104385e+000 0 0 0
2.620423e-002 -6.229668e-003 -1.105572e+000 0 0 0
2.423402e-002 -4.345785e-003 -1.106115e+000 0 0 0
2.286532e-002 -3.205781e-003 -1.106332e+000 0 0 0
2.162578e-002 -2.562960e-003 -1.105605e+000 0 0 0
2.092506e-002 -2.131326e-003 -1.106171e+000 0 0 0
1.948630e-002 -8.234931e-004 -1.106575e+000 0 0 0
2.002274e-002 -4.074938e-004 -1.106392e+000 0 0 0
1.996817e-002 -4.749999e-005 -1.106616e+000 0 0 0
1.944493e-002 -3.833813e-004 -1.106787e+000 0 0 0
1.847388e-002 -7.193998e-004 -1.105800e+000 0 0 0
1.822502e-002 -8.274164e-004 -1.105603e+000 0 0 0
1.752096e-002 -1.014502e-003 -1.105726e+000 0 0 0
1.716819e-002 -1.086410e-003 -1.105451e+000 0 0 0
1.678657e-002 -1.394506e-003 -1.105255e+000 0 0 0
1.673011e-002 -1.318407e-003 -1.105215e+000 0 0 0
1.631038e-002 -1.428589e-003 -1.104877e+000 0 0 0
1.592536e-002 -1.547714e-003 -1.104574e+000 0 0 0
1.593552e-002 -1.600595e-003 -1.104805e+000 0 0 0
1.630186e-002 -1.584017e-003 -1.104863e+000 0 0 0
1.600706e-002 -1.676235e-003 -1.104856e+000 0 0 0
1.600737e-002 -1.768813e-003 -1.104705e+000 0 0 0
1.571469e-002 -2.056531e-003 -1.104556e+000 0 0 0
1.540230e-002 -1.870988e-003 -1.104466e+000 0 0 0
1.522702e-002 -1.838709e-003 -1.104576e+000 0 0 0
1.522076e-002 -1.763184e-003 -1.104507e+000 0 0 0
1.512840e-002 -1.749404e-003 -1.104739e+000 0 0 0
1.512840e-002 -1.749404e-003 -1.104739e+000 0 0 0
1.474182e-002 -1.628135e-003 -1.104447e+000 0 0 0
1.474182e-002 -1.628135e-003 -1.104447e+000 0 0 0
1.474361e-002 -1.567892e-003 -1.104615e+000 0 0 0
1.474448e-002 -1.498629e-003 -1.104770e+000 0 0 0
1.461032e-002 -1.463544e-003 -1.104668e+000 0 0 0
1.460431e-002 -1.375608e-003 -1.104629e+000 0 0 0
1.460431e-002 -1.375608e-003 -1.104629e+000 0 0 0
1.460881e-002 -1.322774e-003 -1.104875e+000 0 0 0
1.460881e-002 -1.322774e-003 -1.104875e+000 0 0 0
1.461032e-002 -1.463544e-003 -1.104668e+000 0 0 0
1.461032e-002 -1.463544e-003 -1.104668e+000 0 0 0
1.461032e-002 -1.463544e-003 -1.104668e+000 0 0 0
1.421337e-002 -1.536390e-003 -1.104358e+000 0 0 0
1.421337e-002 -1.536390e-003 -1.104358e+000 0 0 0
1.421337e-002 -1.536390e-003 -1.104358e+000 0 0 0
1.421978e-002 -1.748806e-003 -1.104181e+000 0 0 0
1.421088e-002 -1.665830e-003 -1.104035e+000 0 0 0
1.421258e-002 -1.605618e-003 -1.104203e+000 0 0 0
1.408730e-002 -1.715656e-003 -1.103937e+000 0 0 0
1.408898e-002 -1.655455e-003 -1.104105e+000 0 0 0
1.408730e-002 -1.715656e-003 -1.103937e+000 0 0 0
1.421088e-002 -1.665830e-003 -1.104035e+000 0 0 0
1.421088e-002 -1.665830e-003 -1.104035e+000 0 0 0
1.421088e-002 -1.665830e-003 -1.104035e+000 0 0 0
1.408730e-002 -1.715656e-003 -1.103937e+000 0 0 0
1.409617e-002 -1.798628e-003 -1.104083e+000 0 0 0
1.408730e-002 -1.715656e-003 -1.103937e+000 0 0 0
1.408730e-002 -1.715656e-003 -1.103937e+000 0 0 0
1.408730e-002 -1.715656e-003 -1.103937e+000 0 0 0
1.408730e-002 -1.715656e-003 -1.103937e+000 0 0 0
1.421337e-002 -1.536390e-003 -1.104358e+000 0 0 0
1.408974e-002 -1.586238e-003 -1.104260e+000 0 0 0
1.409344e-002 -1.531596e-003 -1.104486e+000 0 0 0
1.409344e-002 -1.531596e-003 -1.104486e+000 0 0 0
1.409344e-002 -1.531596e-003 -1.104486e+000 0 0 0
1.409344e-002 -1.531596e-003 -1.104486e+000 0 0 0
1.408812e-002 -1.445543e-003 -1.104466e+000 0 0 0
1.408812e-002 -1.445543e-003 -1.104466e+000 0 0 0
1.408812e-002 -1.445543e-003 -1.104466e+000 0 0 0
1.397134e-002 -1.371282e-003 -1.104380e+000 0 0 0
1.408812e-002 -1.445543e-003 -1.104466e+000 0 0 0
1.398329e-002 -1.436851e-003 -1.104662e+000 0 0 0
1.397773e-002 -1.343626e-003 -1.104648e+000 0 0 0
1.397773e-002 -1.343626e-003 -1.104648e+000 0 0 0
1.397773e-002 -1.343626e-003 -1.104648e+000 0 0 0
1.379700e-002 -1.333114e-003 -1.104509e+000 0 0 0
1.374072e-002 -1.257210e-003 -1.104470e+000 0 0 0
1.363864e-002 -1.190333e-003 -1.104394e+000 0 0 0
1.374072e-002 -1.257210e-003 -1.104470e+000 0 0 0
1.374072e-002 -1.257210e-003 -1.104470e+000 0 0 0
1.363864e-002 -1.190333e-003 -1.104394e+000 0 0 0
1.379700e-002 -1.333114e-003 -1.104509e+000 0 0 0
1.374072e-002 -1.257210e-003 -1.104470e+000 0 0 0
1.374072e-002 -1.257210e-003 -1.104470e+000 0 0 0
1.374072e-002 -1.257210e-003 -1.104470e+000 0 0 0
1.379700e-002 -1.333114e-003 -1.104509e+000 0 0 0
1.374072e-002 -1.257210e-003 -1.104470e+000 0 0 0
1.363864e-002 -1.190333e-003 -1.104394e+000 0 0 0
1.363864e-002 -1.190333e-003 -1.104394e+000 0 0 0
1.363864e-002 -1.190333e-003 -1.104394e+000 0 0 0
1.363864e-002 -1.190333e-003 -1.104394e+000 0 0 0
1.351346e-002 -1.090976e-003 -1.104660e+000 0 0 0
1.363864e-002 -1.190333e-003 -1.104394e+000 0 0 0
1.351509e-002 -1.192618e-003 -1.104523e+000 0 0 0
1.351509e-002 -1.192618e-003 -1.104523e+000 0 0 0
1.351509e-002 -1.192618e-003 -1.104523e+000 0 0 0
1.351509e-002 -1.192618e-003 -1.104523e+000 0 0 0
1.351509e-002 -1.192618e-003 -1.104523e+000 0 0 0
1.351509e-002 -1.192618e-003 -1.104523e+000 0 0 0
1.351346e-002 -1.090976e-003 -1.104660e+000 0 0 0
1.351346e-002 -1.090976e-003 -1.104660e+000 0 0 0
1.350478e-002 -1.047202e-003 -1.104444e+000 0 0 0
1.349202e-002 -8.563587e-004 -1.104534e+000 0 0 0
1.349479e-002 -8.317685e-004 -1.104676e+000 0 0 0
1.349479e-002 -8.317685e-004 -1.104676e+000 0 0 0
1.349479e-002 -8.317685e-004 -1.104676e+000 0 0 0
1.349479e-002 -8.317685e-004 -1.104676e+000 0 0 0
1.349479e-002 -8.317685e-004 -1.104676e+000 0 0 0
1.349479e-002 -8.317685e-004 -1.104676e+000 0 0 0
1.349479e-002 -8.317685e-004 -1.104676e+000 0 0 0
1.349479e-002 -8.317685e-004 -1.104676e+000 0 0 0
1.349479e-002 -8.317685e-004 -1.104676e+000 0 0 0
1.349479e-002 -8.317685e-004 -1.104676e+000 0 0 0
1.350203e-002 -9.038236e-004 -1.104788e+000 0 0 0
1.350203e-002 -9.038236e-004 -1.104788e+000 0 0 0
1.350203e-002 -9.038236e-004 -1.104788e+000 0 0 0
1.350203e-002 -9.038236e-004 -1.104788e+000 0 0 0
1.351207e-002 -9.964849e-004 -1.104792e+000 0 0 0
1.349479e-002 -8.317685e-004 -1.104676e+000 0 0 0
1.349479e-002 -8.317685e-004 -1.104676e+000 0 0 0
1.349479e-002 -8.317685e-004 -1.104676e+000 0 0 0
1.317439e-002 -7.130145e-004 -1.104463e+000 0 0 0
1.317400e-002 -6.150304e-004 -1.104638e+000 0 0 0
1.318195e-002 -7.085316e-004 -1.104734e+000 0 0 0
1.332563e-002 -7.087598e-004 -1.104580e+000 0 0 0
1.318195e-002 -7.085316e-004 -1.104734e+000 0 0 0
1.319025e-002 -7.255025e-004 -1.104990e+000 0 0 0
1.267156e-002 -5.844790e-004 -1.104501e+000 0 0 0
1.267156e-002 -5.844790e-004 -1.104501e+000 0 0 0
1.267361e-002 -5.259445e-004 -1.104689e+000 0 0 0
1.249233e-002 -5.508506e-004 -1.104364e+000 0 0 0
1.267156e-002 -5.844790e-004 -1.104501e+000 0 0 0
1.289126e-002 -4.113758e-004 -1.104863e+000 0 0 0
1.272366e-002 -4.393675e-004 -1.104732e+000 0 0 0
1.255946e-002 -4.053291e-004 -1.104606e+000 0 0 0
1.249435e-002 -4.923218e-004 -1.104552e+000 0 0 0
1.250021e-002 -6.443049e-004 -1.104461e+000 0 0 0
1.250021e-002 -6.443049e-004 -1.104461e+000 0 0 0
1.267644e-002 -7.594714e-004 -1.104331e+000 0 0 0
1.254579e-002 -7.964652e-004 -1.103944e+000 0 0 0
1.317888e-002 -8.096555e-004 -1.104433e+000 0 0 0
1.301391e-002 -7.442250e-004 -1.104603e+000 0 0 0
1.317400e-002 -6.150304e-004 -1.104638e+000 0 0 0
1.316710e-002 -6.213941e-004 -1.104386e+000 0 0 0
1.315963e-002 -5.938817e-004 -1.104179e+000 0 0 0
1.315963e-002 -5.938817e-004 -1.104179e+000 0 0 0
1.333791e-002 -4.491910e-004 -1.104161e+000 0 0 0
1.286846e-002 -3.466128e-004 -1.104188e+000 0 0 0
1.286846e-002 -3.466128e-004 -1.104188e+000 0 0 0
1.254463e-002 -3.627679e-004 -1.104163e+000 0 0 0
1.264472e-002 -1.896383e-004 -1.104249e+000 0 0 0
1.264472e-002 -1.896383e-004 -1.104249e+000 0 0 0
1.271216e-002 -3.347754e-004 -1.104294e+000 0 0 0
1.254463e-002 -3.627679e-004 -1.104163e+000 0 0 0
1.249435e-002 -4.923218e-004 -1.104552e+000 0 0 0
1.237891e-002 -6.208339e-004 -1.104556e+000 0 0 0
1.121809e-002 -6.228857e-004 -1.104890e+000 0 0 0
8.172921e-003 2.660522e-003 -1.107371e+000 0 0 0
5.162286e-003 8.220306e-003 -1.110590e+000 0 0 0
3.139674e-004 1.431475e-002 -1.112376e+000 0 0 0
-6.853159e-003 2.044117e-002 -1.114010e+000 0 0 0
-1.214229e-002 2.462366e-002 -1.114286e+000 0 0 0
-1.553374e-002 2.881329e-002 -1.114249e+000 0 0 0
-1.715041e-002 3.104727e-002 -1.114138e+000 0 0 0
-1.056460e-002 2.997321e-002 -1.120722e+000 0 0 0
-1.890313e-002 3.205573e-002 -1.113933e+000 0 0 0
-1.909565e-002 3.000352e-002 -1.113375e+000 0 0 0
-1.850362e-002 2.854620e-002 -1.113016e+000 0 0 0
-1.803618e-002 2.808069e-002 -1.112965e+000 0 0 0
-1.772415e-002 2.830297e-002 -1.112713e+000 0 0 0
-1.845838e-002 2.839016e-002 -1.112120e+000 0 0 0
-1.850417e-002 2.856550e-002 -1.112475e+000 0 0 0
-1.850417e-002 2.856550e-002 -1.112475e+000 0 0 0
-1.844480e-002 2.817163e-002 -1.112636e+000 0 0 0
-1.840894e-002 2.626014e-002 -1.111921e+000 0 0 0
-1.715884e-002 2.153477e-002 -1.111555e+000 0 0 0
-1.583527e-002 1.629407e-002 -1.110218e+000 0 0 0
-1.579691e-002 1.050870e-002 -1.107039e+000 0 0 0
-1.322693e-002 1.050216e-003 -1.105237e+000 0 0 0
-1.419821e-002 -7.906058e-003 -1.105236e+000 0 0 0
-1.275616e-002 -1.767429e-002 -1.104841e+000 0 0 0
-1.133087e-002 -2.777428e-002 -1.103487e+000 0 0 0
-1.114678e-002 -3.435761e-002 -1.101593e+000 0 0 0
-1.025161e-002 -4.226779e-002 -1.097427e+000 0 0 0
-8.045860e-003 -4.381561e-002 -1.094417e+000 0 0 0
-5.482084e-003 -4.312722e-002 -1.092660e+000 0 0 0
-5.990445e-003 -4.255038e-002 -1.092651e+000 0 0 0
-6.953856e-003 -4.135875e-002 -1.092662e+000 0 0 0
-8.607765e-003 -4.033629e-002 -1.093361e+000 0 0 0
-1.254678e-002 -3.856800e-002 -1.093785e+000 0 0 0
-1.406088e-002 -3.724316e-002 -1.094215e+000 0 0 0
-1.425813e-002 -3.670441e-002 -1.093650e+000 0 0 0
-1.333390e-002 -3.533475e-002 -1.093878e+000 0 0 0
-1.360247e-002 -3.249082e-002 -1.094939e+000 0 0 0
-1.652460e-002 -2.982095e-002 -1.097447e+000 0 0 0
-1.959544e-002 -2.786126e-002 -1.096446e+000 0 0 0
-2.114470e-002 -2.729865e-002 -1.095208e+000 0 0 0
-2.162459e-002 -2.540164e-002 -1.096889e+000 0 0 0
-2.325606e-002 -2.105281e-002 -1.099705e+000 0 0 0
-2.917520e-002 -1.266379e-002 -1.100409e+000 0 0 0
-3.309844e-002 -5.798714e-003 -1.104464e+000 0 0 0
-3.932374e-002 1.295384e-003 -1.104939e+000 0 0 0
-4.153972e-002 4.598939e-003 -1.106011e+000 0 0 0
-4.233578e-002 5.955989e-003 -1.105925e+000 0 0 0
-4.215527e-002 6.177631e-003 -1.104880e+000 0 0 0
-4.084047e-002 6.234722e-003 -1.104621e+000 0 0 0
-3.965628e-002 5.565227e-003 -1.103722e+000 0 0 0
-3.969195e-002 5.911631e-003 -1.105005e+000 0 0 0
-3.998783e-002 6.061554e-003 -1.105102e+000 0 0 0
-4.018105e-002 6.036572e-003 -1.104492e+000 0 0 0
-3.989130e-002 5.717556e-003 -1.104010e+000 0 0 0
-4.118605e-002 6.243937e-003 -1.104338e+000 0 0 0
-4.070791e-002 5.958434e-003 -1.104388e+000 0 0 0
-3.990069e-002 5.262712e-003 -1.104124e+000 0 0 0
-3.976075e-002 5.017027e-003 -1.104176e+000 0 0 0
-4.033206e-002 4.871025e-003 -1.103574e+000 0 0 0
-4.082606e-002 5.909237e-003 -1.104288e+000 0 0 0
-4.100617e-002 6.172152e-003 -1.104270e+000 0 0 0
-4.094654e-002 7.702173e-003 -1.104579e+000 0 0 0
-4.213852e-002 1.013528e-002 -1.105308e+000 0 0 0
-4.251424e-002 1.212518e-002 -1.106228e+000 0 0 0
-4.479106e-002 1.467275e-002 -1.106824e+000 0 0 0
-4.772774e-002 1.792926e-002 -1.106106e+000 0 0 0
-5.135412e-002 2.110225e-002 -1.104795e+000 0 0 0
-5.675943e-002 2.353809e-002 -1.100651e+000 0 0 0
-6.046386e-002 2.558970e-002 -1.096858e+000 0 0 0
-6.479869e-002 2.959926e-002 -1.092898e+000 0 0 0
-6.899017e-002 3.278414e-002 -1.086757e+000 0 0 0
-7.089929e-002 3.506407e-002 -1.081166e+000 0 0 0
-7.505995e-002 3.845853e-002 -1.071946e+000 0 0 0
-7.636214e-002 4.035393e-002 -1.062399e+000 0 0 0
-7.747464e-002 4.285657e-002 -1.055015e+000 0 0 0
-7.761512e-002 4.823624e-002 -1.050630e+000 0 0 0
-7.877242e-002 5.309747e-002 -1.051277e+000 0 0 0
-7.886685e-002 5.343074e-002 -1.051767e+000 0 0 0
-7.809316e-002 4.826830e-002 -1.055661e+000 0 0 0
-7.720490e-002 4.323209e-002 -1.059642e+000 0 0 0
-7.546563e-002 3.857503e-002 -1.063662e+000 0 0 0
-7.411560e-002 3.403273e-002 -1.066309e+000 0 0 0
-7.303537e-002 3.068778e-002 -1.068213e+000 0 0 0
-7.191877e-002 2.803602e-002 -1.069401e+000 0 0 0
-7.194672e-002 2.734177e-002 -1.071070e+000 0 0 0
-7.255978e-002 2.784063e-002 -1.071938e+000 0 0 0
-7.287782e-002 2.862937e-002 -1.072159e+000 0 0 0
-7.291106e-002 2.911219e-002 -1.072705e+000 0 0 0
-7.292061e-002 2.927812e-002 -1.072674e+000 0 0 0
-1.508111e-002 -4.235059e-003 -1.156318e-001 0 255 0
-1.428885e-002 -3.988453e-003 -1.656249e-001 255 255 0
-8.912599e-001 -5.224283e-002 -4.026297e-001 255 0 0
-8.495251e-001 -4.660974e-002 -4.295830e-001 255 255 0
