ply
format ascii 1.0
element face 0
property list uchar int vertex_indices
element vertex 86
property float x
property float y
property float z
property uchar diffuse_red
property uchar diffuse_green
property uchar diffuse_blue
end_header
2.299835e-001 -7.080507e-002 -8.360146e-001 0 0 0
2.331427e-001 -7.780115e-002 -8.349746e-001 0 0 0
2.317740e-001 -7.754037e-002 -8.351848e-001 0 0 0
2.311553e-001 -7.569880e-002 -8.347390e-001 0 0 0
2.296967e-001 -7.258694e-002 -8.365181e-001 0 0 0
2.281556e-001 -7.154700e-002 -8.376198e-001 0 0 0
2.147936e-001 -7.377027e-002 -8.388616e-001 0 0 0
1.974007e-001 -7.813176e-002 -8.410557e-001 0 0 0
1.722900e-001 -8.270158e-002 -8.405907e-001 0 0 0
1.496637e-001 -8.877010e-002 -8.346908e-001 0 0 0
1.268637e-001 -9.500578e-002 -8.250785e-001 0 0 0
1.061687e-001 -9.546372e-002 -8.132188e-001 0 0 0
8.904952e-002 -9.052442e-002 -8.014480e-001 0 0 0
7.412061e-002 -7.954448e-002 -7.914373e-001 0 0 0
6.508816e-002 -6.665233e-002 -7.827178e-001 0 0 0
5.804549e-002 -5.001446e-002 -7.749097e-001 0 0 0
5.625833e-002 -3.383118e-002 -7.698165e-001 0 0 0
5.657946e-002 -1.865815e-002 -7.658934e-001 0 0 0
5.907260e-002 -7.764484e-003 -7.665619e-001 0 0 0
6.222160e-002 -1.748014e-003 -7.719967e-001 0 0 0
6.718848e-002 -2.805222e-003 -7.855831e-001 0 0 0
7.330502e-002 -9.798000e-003 -8.006353e-001 0 0 0
7.784904e-002 -2.089816e-002 -8.134168e-001 0 0 0
7.830751e-002 -3.065780e-002 -8.196977e-001 0 0 0
7.761038e-002 -4.768794e-002 -8.235630e-001 0 0 0
7.562673e-002 -6.141079e-002 -8.234524e-001 0 0 0
7.552342e-002 -7.505920e-002 -8.219947e-001 0 0 0
7.618100e-002 -8.687137e-002 -8.207102e-001 0 0 0
7.540247e-002 -9.669027e-002 -8.170411e-001 0 0 0
7.684438e-002 -1.079649e-001 -8.134891e-001 0 0 0
7.918131e-002 -1.189172e-001 -8.105741e-001 0 0 0
9.174030e-002 -1.449001e-001 -8.035007e-001 0 0 0
9.265057e-002 -1.473136e-001 -8.055295e-001 0 0 0
9.065451e-002 -1.461559e-001 -8.129848e-001 0 0 0
8.741267e-002 -1.419351e-001 -8.222655e-001 0 0 0
7.650664e-002 -1.290896e-001 -8.396525e-001 0 0 0
6.443325e-002 -1.150722e-001 -8.546112e-001 0 0 0
5.950905e-002 -1.068229e-001 -8.580396e-001 0 0 0
5.534318e-002 -9.813304e-002 -8.606297e-001 0 0 0
5.253305e-002 -9.094312e-002 -8.622816e-001 0 0 0
5.019741e-002 -8.338283e-002 -8.622338e-001 0 0 0
4.742920e-002 -7.819181e-002 -8.588817e-001 0 0 0
4.332489e-002 -7.478802e-002 -8.515244e-001 0 0 0
4.064559e-002 -7.262248e-002 -8.439994e-001 0 0 0
3.724149e-002 -6.977151e-002 -8.349230e-001 0 0 0
3.453371e-002 -6.566851e-002 -8.265871e-001 0 0 0
2.800591e-002 -5.185021e-002 -8.064854e-001 0 0 0
2.390812e-002 -4.436258e-002 -7.948965e-001 0 0 0
1.863227e-002 -2.872061e-002 -7.713866e-001 0 0 0
1.799182e-002 -1.711960e-002 -7.584391e-001 0 0 0
2.071211e-002 -3.098381e-003 -7.466279e-001 0 0 0
2.522659e-002 8.156742e-003 -7.393513e-001 0 0 0
3.278437e-002 1.887388e-002 -7.332788e-001 0 0 0
8.411383e-002 -4.059308e-002 -8.055746e-001 0 0 0
1.592496e-001 -1.020232e-001 -8.396018e-001 0 0 0
1.636150e-001 -1.013215e-001 -8.386562e-001 0 0 0
1.655044e-001 -1.010689e-001 -8.384069e-001 0 0 0
1.642925e-001 -1.009664e-001 -8.384367e-001 0 0 0
1.537249e-001 -1.000856e-001 -8.373645e-001 0 0 0
1.385864e-001 -9.760837e-002 -8.336646e-001 0 0 0
1.213526e-001 -9.189404e-002 -8.281119e-001 0 0 0
1.016215e-001 -8.131125e-002 -8.195203e-001 0 0 0
8.637008e-002 -6.931125e-002 -8.099370e-001 0 0 0
7.299259e-002 -5.486943e-002 -7.994559e-001 0 0 0
6.307590e-002 -4.014870e-002 -7.899590e-001 0 0 0
5.699907e-002 -2.399470e-002 -7.773744e-001 0 0 0
5.520644e-002 -1.231518e-002 -7.682752e-001 0 0 0
5.482910e-002 -3.431650e-004 -7.574558e-001 0 0 0
5.461826e-002 7.000278e-003 -7.431862e-001 0 0 0
5.702490e-002 8.762976e-003 -7.329782e-001 0 0 0
5.955383e-002 3.212022e-003 -7.342964e-001 0 0 0
6.072247e-002 -5.848631e-003 -7.414416e-001 0 0 0
6.323909e-002 -2.226056e-002 -7.545673e-001 0 0 0
6.815547e-002 -3.897386e-002 -7.663817e-001 0 0 0
7.498059e-002 -5.592360e-002 -7.777815e-001 0 0 0
8.194119e-002 -6.796349e-002 -7.867691e-001 0 0 0
9.039854e-002 -7.652298e-002 -7.952460e-001 0 0 0
9.862056e-002 -8.155118e-002 -8.015998e-001 0 0 0
-2.105118e-001 -1.035725e-002 -1.302809e-001 0 255 0
-1.962644e-001 -8.665930e-003 -1.781782e-001 255 255 0
-6.050988e-001 -1.258279e-001 -5.617539e-001 255 0 0
-5.623545e-001 -1.179010e-001 -5.864538e-001 255 255 0
5.648849e-001 -4.768399e-001 -7.849107e-001 0 255 0
5.310543e-001 -4.400276e-001 -7.855012e-001 255 255 0
1.095180e-001 -4.668419e-001 -1.077826e+000 255 0 0
1.012173e-001 -4.241897e-001 -1.053089e+000 255 255 0
