ply
format ascii 1.0
element face 0
property list uchar int vertex_indices
element vertex 82
property float x
property float y
property float z
property uchar diffuse_red
property uchar diffuse_green
property uchar diffuse_blue
end_header
1.940378e-001 -6.007795e-002 -8.161056e-001 0 0 0
2.059347e-001 -6.691847e-002 -8.224308e-001 0 0 0
2.018774e-001 -6.677977e-002 -8.222614e-001 0 0 0
2.014585e-001 -6.476465e-002 -8.199848e-001 0 0 0
1.977175e-001 -6.176118e-002 -8.181376e-001 0 0 0
1.952075e-001 -6.094462e-002 -8.188069e-001 0 0 0
1.838099e-001 -6.424530e-002 -8.207247e-001 0 0 0
1.721952e-001 -6.876517e-002 -8.248985e-001 0 0 0
1.514169e-001 -7.602844e-002 -8.270060e-001 0 0 0
1.365677e-001 -8.341617e-002 -8.249789e-001 0 0 0
1.214989e-001 -9.112136e-002 -8.197583e-001 0 0 0
1.089913e-001 -9.351599e-002 -8.129022e-001 0 0 0
9.609556e-002 -9.065964e-002 -8.043042e-001 0 0 0
8.514564e-002 -8.163528e-002 -7.972576e-001 0 0 0
7.855951e-002 -7.018978e-002 -7.904509e-001 0 0 0
7.251609e-002 -5.526570e-002 -7.833396e-001 0 0 0
7.115268e-002 -3.988901e-002 -7.793679e-001 0 0 0
7.136939e-002 -2.489166e-002 -7.750506e-001 0 0 0
7.186865e-002 -1.466345e-002 -7.746449e-001 0 0 0
7.285254e-002 -8.676038e-003 -7.792316e-001 0 0 0
7.452326e-002 -9.948226e-003 -7.918874e-001 0 0 0
7.629723e-002 -1.683449e-002 -8.031071e-001 0 0 0
7.778939e-002 -2.734835e-002 -8.134123e-001 0 0 0
7.849419e-002 -3.598258e-002 -8.198525e-001 0 0 0
7.746387e-002 -5.244007e-002 -8.229318e-001 0 0 0
7.716359e-002 -6.498514e-002 -8.234427e-001 0 0 0
7.851087e-002 -7.798975e-002 -8.226370e-001 0 0 0
8.029015e-002 -8.921041e-002 -8.217947e-001 0 0 0
8.163406e-002 -9.809200e-002 -8.196074e-001 0 0 0
8.521720e-002 -1.078832e-001 -8.173771e-001 0 0 0
8.828205e-002 -1.184180e-001 -8.145579e-001 0 0 0
1.033720e-001 -1.411719e-001 -8.089857e-001 0 0 0
1.037811e-001 -1.432276e-001 -8.104086e-001 0 0 0
1.001384e-001 -1.423082e-001 -8.169226e-001 0 0 0
9.427011e-002 -1.385903e-001 -8.237772e-001 0 0 0
8.008556e-002 -1.280721e-001 -8.385200e-001 0 0 0
6.520708e-002 -1.161378e-001 -8.523949e-001 0 0 0
5.869783e-002 -1.091127e-001 -8.550923e-001 0 0 0
5.366647e-002 -1.016123e-001 -8.574462e-001 0 0 0
5.024169e-002 -9.532720e-002 -8.588588e-001 0 0 0
4.773420e-002 -8.871051e-002 -8.588829e-001 0 0 0
4.650978e-002 -8.399395e-002 -8.566865e-001 0 0 0
4.343390e-002 -8.142437e-002 -8.503905e-001 0 0 0
4.307370e-002 -7.941630e-002 -8.446428e-001 0 0 0
4.165933e-002 -7.703112e-002 -8.376406e-001 0 0 0
4.119082e-002 -7.326967e-002 -8.307935e-001 0 0 0
3.968464e-002 -6.038174e-002 -8.140734e-001 0 0 0
3.795711e-002 -5.340083e-002 -8.052481e-001 0 0 0
3.728938e-002 -3.808153e-002 -7.846911e-001 0 0 0
3.854820e-002 -2.636670e-002 -7.719394e-001 0 0 0
4.257495e-002 -1.194125e-002 -7.602924e-001 0 0 0
4.815785e-002 -1.618530e-004 -7.532507e-001 0 0 0
5.534540e-002 1.121851e-002 -7.470647e-001 0 0 0
8.781994e-002 -4.437842e-002 -8.076873e-001 0 0 0
1.439026e-001 -9.432678e-002 -8.279407e-001 0 0 0
1.474578e-001 -9.335918e-002 -8.269348e-001 0 0 0
1.489837e-001 -9.276542e-002 -8.265046e-001 0 0 0
1.474059e-001 -9.289559e-002 -8.262778e-001 0 0 0
1.399312e-001 -9.308049e-002 -8.270206e-001 0 0 0
1.289049e-001 -9.246769e-002 -8.255361e-001 0 0 0
1.159609e-001 -8.892140e-002 -8.227544e-001 0 0 0
1.011493e-001 -8.107604e-002 -8.176345e-001 0 0 0
8.999105e-002 -7.117451e-002 -8.111852e-001 0 0 0
8.035420e-002 -5.894335e-002 -8.031478e-001 0 0 0
7.267631e-002 -4.556930e-002 -7.957006e-001 0 0 0
6.902551e-002 -3.051586e-002 -7.847807e-001 0 0 0
6.876126e-002 -1.912506e-002 -7.766428e-001 0 0 0
6.982482e-002 -7.352171e-003 -7.666037e-001 0 0 0
7.261589e-002 3.648758e-004 -7.547410e-001 0 0 0
7.727849e-002 2.999187e-003 -7.445807e-001 0 0 0
7.993830e-002 -2.059920e-003 -7.461304e-001 0 0 0
8.004053e-002 -1.099577e-002 -7.527405e-001 0 0 0
8.048384e-002 -2.713284e-002 -7.649617e-001 0 0 0
8.311524e-002 -4.314638e-002 -7.753100e-001 0 0 0
8.757249e-002 -5.904238e-002 -7.851662e-001 0 0 0
9.231806e-002 -7.019292e-002 -7.925210e-001 0 0 0
9.738642e-002 -7.728352e-002 -7.988710e-001 0 0 0
1.042523e-001 -8.118048e-002 -8.039633e-001 0 0 0
-4.051234e-002 -6.823223e-003 1.902958e-002 0 255 0
-3.808038e-002 -6.460237e-003 -3.090993e-002 255 255 0
-6.959018e-001 -2.448329e-001 -6.052482e-001 255 0 0
-6.517480e-001 -2.311070e-001 -6.242757e-001 255 255 0
