ply
format ascii 1.0
element face 0
property list uchar int vertex_indices
element vertex 97
property float x
property float y
property float z
property uchar diffuse_red
property uchar diffuse_green
property uchar diffuse_blue
end_header
-1.342359e-003 5.012756e-002 -8.571079e-001 0 0 0
9.518361e-004 5.247203e-002 -8.600646e-001 0 0 0
5.952854e-003 5.885572e-002 -8.624822e-001 0 0 0
1.312062e-002 7.045943e-002 -8.654836e-001 0 0 0
2.626513e-002 8.773658e-002 -8.676599e-001 0 0 0
4.039067e-002 1.061517e-001 -8.670441e-001 0 0 0
5.135531e-002 1.233237e-001 -8.671680e-001 0 0 0
5.261009e-002 1.370414e-001 -8.706164e-001 0 0 0
4.887260e-002 1.497166e-001 -8.764111e-001 0 0 0
3.846327e-002 1.580120e-001 -8.785983e-001 0 0 0
2.982010e-002 1.615287e-001 -8.860839e-001 0 0 0
1.905125e-002 1.619984e-001 -8.902709e-001 0 0 0
4.800206e-003 1.590224e-001 -8.949031e-001 0 0 0
-9.143312e-003 1.541793e-001 -8.994621e-001 0 0 0
-2.154051e-002 1.486781e-001 -9.026657e-001 0 0 0
-3.387212e-002 1.413835e-001 -9.048447e-001 0 0 0
-4.682745e-002 1.331476e-001 -9.040818e-001 0 0 0
-5.864160e-002 1.243391e-001 -9.015397e-001 0 0 0
-6.816788e-002 1.160372e-001 -8.979260e-001 0 0 0
-7.853681e-002 1.051742e-001 -8.945673e-001 0 0 0
-8.703031e-002 9.372559e-002 -8.898110e-001 0 0 0
-9.662420e-002 7.844070e-002 -8.820659e-001 0 0 0
-1.035775e-001 6.283948e-002 -8.714043e-001 0 0 0
-1.057761e-001 4.871776e-002 -8.581329e-001 0 0 0
-1.052630e-001 3.502709e-002 -8.413106e-001 0 0 0
-1.017690e-001 2.550852e-002 -8.269460e-001 0 0 0
-9.083112e-002 1.840863e-002 -8.128279e-001 0 0 0
-7.496472e-002 1.627854e-002 -8.015118e-001 0 0 0
-5.914727e-002 1.812108e-002 -7.946484e-001 0 0 0
-4.461604e-002 2.620348e-002 -7.959122e-001 0 0 0
-2.991704e-002 3.398439e-002 -7.995383e-001 0 0 0
-2.215655e-002 4.220200e-002 -8.080447e-001 0 0 0
-1.858203e-002 4.913247e-002 -8.239676e-001 0 0 0
-2.376540e-002 4.999967e-002 -8.428404e-001 0 0 0
-3.263644e-002 4.822555e-002 -8.593674e-001 0 0 0
-4.160029e-002 4.370972e-002 -8.755735e-001 0 0 0
-4.578685e-002 3.563920e-002 -8.864839e-001 0 0 0
-4.495560e-002 2.419266e-002 -8.985413e-001 0 0 0
-4.282163e-002 1.393752e-002 -9.052185e-001 0 0 0
-3.938822e-002 1.143300e-003 -9.102886e-001 0 0 0
-3.670625e-002 -6.596573e-003 -9.119413e-001 0 0 0
-3.677688e-002 -8.788125e-003 -9.097876e-001 0 0 0
-4.016198e-002 2.477975e-003 -9.009626e-001 0 0 0
-4.523919e-002 2.185002e-002 -8.922521e-001 0 0 0
-4.664605e-002 4.872815e-002 -8.797051e-001 0 0 0
-4.736920e-002 6.731640e-002 -8.729085e-001 0 0 0
-4.753775e-002 8.757727e-002 -8.676445e-001 0 0 0
-4.458215e-002 1.043815e-001 -8.649968e-001 0 0 0
-3.554155e-002 1.250433e-001 -8.652007e-001 0 0 0
-1.509623e-002 1.443254e-001 -8.626714e-001 0 0 0
4.493430e-003 1.536377e-001 -8.557098e-001 0 0 0
2.601740e-002 1.579270e-001 -8.498288e-001 0 0 0
3.750037e-002 1.554834e-001 -8.368651e-001 0 0 0
4.477429e-002 1.496113e-001 -8.280656e-001 0 0 0
4.464483e-002 1.405347e-001 -8.157825e-001 0 0 0
3.727271e-002 1.306597e-001 -8.069757e-001 0 0 0
2.677720e-002 1.199977e-001 -8.004471e-001 0 0 0
1.314330e-002 1.081234e-001 -7.972884e-001 0 0 0
1.671516e-004 9.714665e-002 -7.970427e-001 0 0 0
-1.531339e-002 8.404826e-002 -8.004690e-001 0 0 0
-3.062980e-002 7.036696e-002 -8.073395e-001 0 0 0
-4.195499e-002 6.057185e-002 -8.148852e-001 0 0 0
-5.313029e-002 5.111053e-002 -8.251120e-001 0 0 0
-5.986220e-002 4.568700e-002 -8.377520e-001 0 0 0
-6.591821e-002 4.427195e-002 -8.553966e-001 0 0 0
-6.926944e-002 4.542752e-002 -8.674260e-001 0 0 0
-7.019628e-002 4.866430e-002 -8.860740e-001 0 0 0
-7.073335e-002 5.238264e-002 -8.985534e-001 0 0 0
-7.024302e-002 5.679791e-002 -9.131472e-001 0 0 0
-6.799636e-002 5.958584e-002 -9.292098e-001 0 0 0
-6.434379e-002 6.067027e-002 -9.422937e-001 0 0 0
-5.942114e-002 5.932216e-002 -9.546374e-001 0 0 0
-5.347883e-002 5.788473e-002 -9.632634e-001 0 0 0
-4.497530e-002 6.489361e-002 -9.708755e-001 0 0 0
-3.343028e-002 8.192071e-002 -9.774978e-001 0 0 0
-2.089901e-002 1.045574e-001 -9.804211e-001 0 0 0
-1.011315e-002 1.239919e-001 -9.841852e-001 0 0 0
1.217634e-003 1.441994e-001 -9.877287e-001 0 0 0
1.112651e-002 1.589404e-001 -9.892414e-001 0 0 0
2.708405e-002 1.723917e-001 -9.873878e-001 0 0 0
4.316850e-002 1.814023e-001 -9.796389e-001 0 0 0
6.393839e-002 1.884912e-001 -9.770776e-001 0 0 0
7.738807e-002 1.910087e-001 -9.668970e-001 0 0 0
8.817413e-002 1.924321e-001 -9.588129e-001 0 0 0
9.283687e-002 1.924931e-001 -9.479401e-001 0 0 0
9.571023e-002 1.931258e-001 -9.382175e-001 0 0 0
6.033711e-002 1.796162e-001 -8.797228e-001 0 0 0
4.594401e-002 1.676274e-001 -8.697351e-001 0 0 0
-2.184313e-002 6.678107e-002 -8.077009e-001 0 0 0
-2.311223e-002 6.600086e-002 -8.123533e-001 0 0 0
-2.279059e-002 6.958821e-002 -8.171477e-001 0 0 0
-2.236986e-002 7.425117e-002 -8.192757e-001 0 0 0
-2.214667e-002 7.744931e-002 -8.224185e-001 0 0 0
-9.609834e-002 1.354612e-002 -1.087171e-001 0 255 0
-8.994513e-002 1.241578e-002 -1.583242e-001 255 255 0
-8.410586e-001 1.018129e-001 -3.949580e-001 255 0 0
-7.951599e-001 9.268782e-002 -4.125659e-001 255 255 0
