ply
format ascii 1.0
element face 0
property list uchar int vertex_indices
element vertex 101
property float x
property float y
property float z
property uchar diffuse_red
property uchar diffuse_green
property uchar diffuse_blue
end_header
-8.452417e-003 4.908903e-002 -8.552340e-001 0 0 0
-6.134109e-003 5.151647e-002 -8.585969e-001 0 0 0
-1.539158e-004 5.858048e-002 -8.624760e-001 0 0 0
6.437769e-003 7.021490e-002 -8.664424e-001 0 0 0
1.808625e-002 8.768285e-002 -8.689155e-001 0 0 0
3.399902e-002 1.077035e-001 -8.703734e-001 0 0 0
4.571850e-002 1.259996e-001 -8.719952e-001 0 0 0
4.702013e-002 1.410013e-001 -8.757963e-001 0 0 0
4.243036e-002 1.531790e-001 -8.793611e-001 0 0 0
3.339614e-002 1.612971e-001 -8.831594e-001 0 0 0
2.374137e-002 1.642291e-001 -8.875773e-001 0 0 0
1.205070e-002 1.638572e-001 -8.915337e-001 0 0 0
-8.029792e-004 1.603467e-001 -8.948542e-001 0 0 0
-1.489791e-002 1.545793e-001 -8.977421e-001 0 0 0
-2.763579e-002 1.482686e-001 -8.998648e-001 0 0 0
-4.133098e-002 1.394801e-001 -9.000764e-001 0 0 0
-5.339008e-002 1.305912e-001 -8.971434e-001 0 0 0
-6.536600e-002 1.209099e-001 -8.930405e-001 0 0 0
-7.466854e-002 1.119578e-001 -8.888139e-001 0 0 0
-8.533248e-002 1.004244e-001 -8.833067e-001 0 0 0
-9.448489e-002 8.794659e-002 -8.766004e-001 0 0 0
-1.033211e-001 7.277092e-002 -8.679884e-001 0 0 0
-1.104898e-001 5.668681e-002 -8.549231e-001 0 0 0
-1.134014e-001 4.285364e-002 -8.407883e-001 0 0 0
-1.133937e-001 2.932920e-002 -8.237271e-001 0 0 0
-1.106387e-001 1.943774e-002 -8.081057e-001 0 0 0
-1.011172e-001 1.312186e-002 -7.952283e-001 0 0 0
-8.654963e-002 1.122177e-002 -7.845038e-001 0 0 0
-7.177504e-002 1.367351e-002 -7.790886e-001 0 0 0
-5.760433e-002 2.176202e-002 -7.819662e-001 0 0 0
-4.335739e-002 3.012268e-002 -7.869349e-001 0 0 0
-3.402305e-002 3.891548e-002 -7.982566e-001 0 0 0
-2.997840e-002 4.616780e-002 -8.140684e-001 0 0 0
-3.335369e-002 4.731943e-002 -8.344199e-001 0 0 0
-4.005108e-002 4.628868e-002 -8.516599e-001 0 0 0
-4.789063e-002 4.153724e-002 -8.694072e-001 0 0 0
-5.060013e-002 3.391296e-002 -8.823108e-001 0 0 0
-4.884909e-002 2.256207e-002 -8.970467e-001 0 0 0
-4.474161e-002 1.224042e-002 -9.075050e-001 0 0 0
-4.084407e-002 -2.335081e-004 -9.141026e-001 0 0 0
-3.691687e-002 -8.255316e-003 -9.179023e-001 0 0 0
-3.802944e-002 -1.019422e-002 -9.143125e-001 0 0 0
-4.275853e-002 9.288378e-004 -9.032765e-001 0 0 0
-4.980466e-002 2.050455e-002 -8.898146e-001 0 0 0
-5.243612e-002 4.590208e-002 -8.753963e-001 0 0 0
-5.549990e-002 6.475332e-002 -8.643486e-001 0 0 0
-5.598772e-002 8.345416e-002 -8.591740e-001 0 0 0
-5.391909e-002 1.008078e-001 -8.546672e-001 0 0 0
-4.608157e-002 1.208923e-001 -8.558416e-001 0 0 0
-2.610433e-002 1.408615e-001 -8.552765e-001 0 0 0
-6.777181e-003 1.510593e-001 -8.496398e-001 0 0 0
1.383917e-002 1.571772e-001 -8.439094e-001 0 0 0
2.564578e-002 1.543698e-001 -8.330839e-001 0 0 0
3.197268e-002 1.492372e-001 -8.230240e-001 0 0 0
3.122089e-002 1.397155e-001 -8.113822e-001 0 0 0
2.307837e-002 1.287746e-001 -8.000187e-001 0 0 0
1.064314e-002 1.167459e-001 -7.913428e-001 0 0 0
-9.994061e-004 1.052314e-001 -7.875605e-001 0 0 0
-1.521044e-002 9.306404e-002 -7.857128e-001 0 0 0
-3.000184e-002 7.944987e-002 -7.881207e-001 0 0 0
-4.428577e-002 6.566358e-002 -7.933227e-001 0 0 0
-5.431957e-002 5.605631e-002 -8.017071e-001 0 0 0
-6.439331e-002 4.637964e-002 -8.102497e-001 0 0 0
-6.993063e-002 4.166396e-002 -8.248969e-001 0 0 0
-7.431510e-002 4.025201e-002 -8.431199e-001 0 0 0
-7.570717e-002 4.165859e-002 -8.597611e-001 0 0 0
-7.618681e-002 4.516795e-002 -8.771292e-001 0 0 0
-7.574326e-002 4.913476e-002 -8.914913e-001 0 0 0
-7.413119e-002 5.427849e-002 -9.092137e-001 0 0 0
-7.086549e-002 5.767714e-002 -9.268476e-001 0 0 0
-6.585428e-002 5.970571e-002 -9.441815e-001 0 0 0
-5.988951e-002 5.882901e-002 -9.593370e-001 0 0 0
-5.268418e-002 5.814262e-002 -9.717758e-001 0 0 0
-4.311268e-002 6.572050e-002 -9.830763e-001 0 0 0
-3.109586e-002 8.459447e-002 -9.922253e-001 0 0 0
-1.887280e-002 1.083955e-001 -9.977255e-001 0 0 0
-5.389930e-003 1.304516e-001 -1.004259e+000 0 0 0
5.268034e-003 1.509633e-001 -1.009258e+000 0 0 0
1.722201e-002 1.683840e-001 -1.011983e+000 0 0 0
3.231385e-002 1.829418e-001 -1.012798e+000 0 0 0
5.226990e-002 1.949897e-001 -1.010340e+000 0 0 0
7.119498e-002 2.034179e-001 -1.004717e+000 0 0 0
8.609437e-002 2.070977e-001 -9.977902e-001 0 0 0
9.698783e-002 2.086966e-001 -9.873794e-001 0 0 0
1.013562e-001 2.087565e-001 -9.769337e-001 0 0 0
1.028164e-001 2.085277e-001 -9.628300e-001 0 0 0
5.595131e-002 1.858171e-001 -8.860327e-001 0 0 0
3.960333e-002 1.712534e-001 -8.717874e-001 0 0 0
-3.500208e-002 6.261459e-002 -7.961999e-001 0 0 0
-3.609954e-002 6.187381e-002 -8.003375e-001 0 0 0
-3.585684e-002 6.565648e-002 -8.055729e-001 0 0 0
-3.495519e-002 7.009520e-002 -8.084067e-001 0 0 0
-3.470968e-002 7.342036e-002 -8.115372e-001 0 0 0
-1.451850e-001 -1.436105e-003 -1.886323e-001 0 255 0
-1.351757e-001 -1.664119e-003 -2.376197e-001 255 255 0
-6.172030e-001 4.435411e-002 -4.165363e-001 255 0 0
-5.727883e-001 3.621672e-002 -4.380100e-001 255 255 0
4.074310e-001 4.684367e-001 -9.560008e-001 0 255 0
3.757342e-001 4.305273e-001 -9.483722e-001 255 255 0
-1.064730e-001 4.944278e-001 -1.160118e+000 255 0 0
-1.026205e-001 4.536328e-001 -1.131466e+000 255 255 0
