ply
format ascii 1.0
element face 0
property list uchar int vertex_indices
element vertex 82
property float x
property float y
property float z
property uchar diffuse_red
property uchar diffuse_green
property uchar diffuse_blue
end_header
-2.809254e-003 -1.375254e-001 -8.849176e-001 0 0 0
-7.269469e-003 -1.363615e-001 -8.820729e-001 0 0 0
-5.086235e-003 -1.371489e-001 -8.835495e-001 0 0 0
-6.560913e-003 -1.373366e-001 -8.843151e-001 0 0 0
-8.730459e-003 -1.371632e-001 -8.832717e-001 0 0 0
-1.346908e-002 -1.354339e-001 -8.800889e-001 0 0 0
-2.060404e-002 -1.332657e-001 -8.759057e-001 0 0 0
-2.923213e-002 -1.297366e-001 -8.721889e-001 0 0 0
-3.900414e-002 -1.240242e-001 -8.693624e-001 0 0 0
-4.891368e-002 -1.158543e-001 -8.676967e-001 0 0 0
-5.697781e-002 -1.060342e-001 -8.650504e-001 0 0 0
-6.388506e-002 -9.322783e-002 -8.602749e-001 0 0 0
-6.738239e-002 -7.939811e-002 -8.549420e-001 0 0 0
-6.870346e-002 -6.805967e-002 -8.500535e-001 0 0 0
-6.836381e-002 -5.713696e-002 -8.446871e-001 0 0 0
-6.770114e-002 -4.846455e-002 -8.401392e-001 0 0 0
-6.720269e-002 -3.991233e-002 -8.361727e-001 0 0 0
-6.649556e-002 -3.287126e-002 -8.330400e-001 0 0 0
-6.652278e-002 -2.784933e-002 -8.309962e-001 0 0 0
-6.718078e-002 -2.510969e-002 -8.298347e-001 0 0 0
-6.838830e-002 -2.679706e-002 -8.306201e-001 0 0 0
-6.930970e-002 -3.343468e-002 -8.326326e-001 0 0 0
-6.970526e-002 -4.177774e-002 -8.348200e-001 0 0 0
-7.158821e-002 -5.224728e-002 -8.391527e-001 0 0 0
-7.377890e-002 -6.323120e-002 -8.442050e-001 0 0 0
-7.491825e-002 -7.667063e-002 -8.506110e-001 0 0 0
-7.404371e-002 -8.968537e-002 -8.559623e-001 0 0 0
-7.056282e-002 -1.070386e-001 -8.639904e-001 0 0 0
-6.656695e-002 -1.194964e-001 -8.715944e-001 0 0 0
-6.099929e-002 -1.329954e-001 -8.833362e-001 0 0 0
-5.145880e-002 -1.460998e-001 -8.932841e-001 0 0 0
-4.046336e-002 -1.566704e-001 -9.022849e-001 0 0 0
-2.691946e-002 -1.658540e-001 -9.090349e-001 0 0 0
-1.420953e-002 -1.729665e-001 -9.133684e-001 0 0 0
-1.569207e-003 -1.785652e-001 -9.137196e-001 0 0 0
1.438770e-002 -1.822454e-001 -9.098340e-001 0 0 0
2.581399e-002 -1.830672e-001 -9.041706e-001 0 0 0
3.619539e-002 -1.820063e-001 -8.969983e-001 0 0 0
4.419667e-002 -1.795885e-001 -8.869400e-001 0 0 0
4.916718e-002 -1.781578e-001 -8.779942e-001 0 0 0
5.241405e-002 -1.742691e-001 -8.670937e-001 0 0 0
5.538540e-002 -1.680906e-001 -8.562064e-001 0 0 0
5.623416e-002 -1.609311e-001 -8.470365e-001 0 0 0
5.546089e-002 -1.545576e-001 -8.410396e-001 0 0 0
5.319569e-002 -1.531213e-001 -8.402512e-001 0 0 0
4.888730e-002 -1.580855e-001 -8.448777e-001 0 0 0
4.411096e-002 -1.648418e-001 -8.532755e-001 0 0 0
4.095362e-002 -1.718061e-001 -8.634619e-001 0 0 0
3.752526e-002 -1.795515e-001 -8.750805e-001 0 0 0
3.270981e-002 -1.880814e-001 -8.869018e-001 0 0 0
2.777440e-002 -1.960601e-001 -8.988433e-001 0 0 0
2.420052e-002 -2.012136e-001 -9.098658e-001 0 0 0
2.188870e-002 -2.050714e-001 -9.236493e-001 0 0 0
2.083959e-002 -2.074283e-001 -9.384127e-001 0 0 0
1.879667e-002 -2.092289e-001 -9.545818e-001 0 0 0
1.724209e-002 -2.076491e-001 -9.696356e-001 0 0 0
1.761136e-002 -2.036580e-001 -9.865069e-001 0 0 0
1.860168e-002 -1.985341e-001 -1.000992e+000 0 0 0
1.867962e-002 -1.945836e-001 -1.009588e+000 0 0 0
2.073251e-002 -1.930898e-001 -1.019296e+000 0 0 0
2.443293e-002 -1.957431e-001 -1.021057e+000 0 0 0
3.196777e-002 -2.025639e-001 -1.017902e+000 0 0 0
4.030638e-002 -2.094098e-001 -1.011519e+000 0 0 0
5.155989e-002 -2.169033e-001 -1.003290e+000 0 0 0
6.443924e-002 -2.243947e-001 -9.920785e-001 0 0 0
7.770242e-002 -2.293580e-001 -9.823541e-001 0 0 0
9.075990e-002 -2.296144e-001 -9.730547e-001 0 0 0
1.032150e-001 -2.290379e-001 -9.682914e-001 0 0 0
1.160997e-001 -2.247585e-001 -9.626966e-001 0 0 0
1.274464e-001 -2.186626e-001 -9.565953e-001 0 0 0
1.464356e-001 -1.939888e-001 -9.097835e-001 0 0 0
1.388639e-001 -1.921155e-001 -9.024412e-001 0 0 0
1.293820e-001 -1.878507e-001 -8.989337e-001 0 0 0
1.199245e-001 -1.872292e-001 -9.003756e-001 0 0 0
-1.632114e-001 2.914029e-002 -1.788930e-001 0 255 0
-1.526353e-001 2.698951e-002 -2.277143e-001 255 255 0
-6.589530e-001 -8.565180e-002 -4.385392e-001 255 0 0
-6.215309e-001 -8.076659e-002 -4.713374e-001 255 255 0
3.706731e-001 -4.532104e-001 -9.407036e-001 0 255 0
3.391930e-001 -4.148414e-001 -9.346353e-001 255 255 0
-7.862793e-002 -5.278781e-001 -1.142263e+000 255 0 0
-7.986508e-002 -4.841182e-001 -1.118106e+000 255 255 0
