ply
format ascii 1.0
element face 0
property list uchar int vertex_indices
element vertex 78
property float x
property float y
property float z
property uchar diffuse_red
property uchar diffuse_green
property uchar diffuse_blue
end_header
4.985526e-003 -1.423360e-001 -8.960009e-001 0 0 0
5.771942e-004 -1.416304e-001 -8.940352e-001 0 0 0
2.659401e-003 -1.421794e-001 -8.948093e-001 0 0 0
1.045011e-003 -1.424195e-001 -8.959887e-001 0 0 0
-1.402335e-003 -1.420615e-001 -8.948709e-001 0 0 0
-5.265583e-003 -1.412533e-001 -8.928736e-001 0 0 0
-1.147861e-002 -1.398368e-001 -8.899305e-001 0 0 0
-2.062714e-002 -1.367935e-001 -8.871681e-001 0 0 0
-2.921157e-002 -1.318463e-001 -8.859026e-001 0 0 0
-3.992618e-002 -1.234791e-001 -8.853834e-001 0 0 0
-4.812085e-002 -1.138392e-001 -8.835517e-001 0 0 0
-5.399393e-002 -1.006759e-001 -8.788907e-001 0 0 0
-5.704743e-002 -8.620961e-002 -8.738852e-001 0 0 0
-5.743776e-002 -7.434677e-002 -8.688119e-001 0 0 0
-5.612763e-002 -6.292580e-002 -8.630426e-001 0 0 0
-5.467411e-002 -5.386331e-002 -8.588361e-001 0 0 0
-5.331390e-002 -4.461171e-002 -8.545413e-001 0 0 0
-5.188184e-002 -3.702943e-002 -8.513296e-001 0 0 0
-5.163724e-002 -3.167588e-002 -8.488105e-001 0 0 0
-5.218297e-002 -2.879969e-002 -8.475711e-001 0 0 0
-5.351497e-002 -3.056873e-002 -8.488477e-001 0 0 0
-5.506081e-002 -3.779459e-002 -8.508892e-001 0 0 0
-5.582778e-002 -4.683933e-002 -8.535797e-001 0 0 0
-5.869069e-002 -5.806245e-002 -8.581393e-001 0 0 0
-6.245408e-002 -7.010987e-002 -8.631238e-001 0 0 0
-6.431960e-002 -8.393593e-002 -8.705777e-001 0 0 0
-6.416067e-002 -9.685893e-002 -8.749603e-001 0 0 0
-6.182750e-002 -1.150351e-001 -8.832642e-001 0 0 0
-5.885241e-002 -1.281004e-001 -8.912162e-001 0 0 0
-5.486849e-002 -1.411127e-001 -9.018772e-001 0 0 0
-4.648717e-002 -1.534946e-001 -9.100949e-001 0 0 0
-3.632171e-002 -1.629580e-001 -9.168210e-001 0 0 0
-2.346958e-002 -1.710343e-001 -9.220629e-001 0 0 0
-1.298107e-002 -1.768434e-001 -9.237043e-001 0 0 0
1.307102e-003 -1.823343e-001 -9.229216e-001 0 0 0
1.777136e-002 -1.853075e-001 -9.174226e-001 0 0 0
3.023338e-002 -1.858627e-001 -9.111517e-001 0 0 0
4.166196e-002 -1.848439e-001 -9.034864e-001 0 0 0
5.093351e-002 -1.833720e-001 -8.940656e-001 0 0 0
5.787465e-002 -1.818556e-001 -8.850821e-001 0 0 0
6.274046e-002 -1.792060e-001 -8.756417e-001 0 0 0
6.832343e-002 -1.732472e-001 -8.649273e-001 0 0 0
7.110571e-002 -1.667561e-001 -8.561121e-001 0 0 0
7.192278e-002 -1.603855e-001 -8.506249e-001 0 0 0
6.995821e-002 -1.593702e-001 -8.501892e-001 0 0 0
6.429130e-002 -1.644550e-001 -8.552114e-001 0 0 0
5.850509e-002 -1.704076e-001 -8.629598e-001 0 0 0
5.248296e-002 -1.772845e-001 -8.736437e-001 0 0 0
4.631144e-002 -1.852656e-001 -8.859383e-001 0 0 0
3.947908e-002 -1.924414e-001 -8.955603e-001 0 0 0
3.227749e-002 -1.993278e-001 -9.077355e-001 0 0 0
2.664768e-002 -2.036336e-001 -9.178716e-001 0 0 0
2.180145e-002 -2.061463e-001 -9.301580e-001 0 0 0
1.824947e-002 -2.073080e-001 -9.427570e-001 0 0 0
1.316037e-002 -2.070725e-001 -9.570357e-001 0 0 0
8.993778e-003 -2.032009e-001 -9.714101e-001 0 0 0
6.676389e-003 -1.978437e-001 -9.828565e-001 0 0 0
5.385853e-003 -1.912664e-001 -9.937011e-001 0 0 0
4.505973e-003 -1.862975e-001 -1.000905e+000 0 0 0
4.233617e-003 -1.837683e-001 -1.007314e+000 0 0 0
7.203951e-003 -1.860238e-001 -1.008004e+000 0 0 0
1.490108e-002 -1.924699e-001 -1.004701e+000 0 0 0
2.403386e-002 -1.994459e-001 -9.993229e-001 0 0 0
3.739015e-002 -2.076740e-001 -9.906571e-001 0 0 0
5.171045e-002 -2.151752e-001 -9.828100e-001 0 0 0
6.464862e-002 -2.193150e-001 -9.740713e-001 0 0 0
7.902851e-002 -2.199572e-001 -9.619580e-001 0 0 0
8.846884e-002 -2.181041e-001 -9.547348e-001 0 0 0
1.041772e-001 -2.141095e-001 -9.496534e-001 0 0 0
1.153621e-001 -2.092322e-001 -9.434729e-001 0 0 0
1.421666e-001 -1.878857e-001 -9.005267e-001 0 0 0
1.364319e-001 -1.868720e-001 -8.955893e-001 0 0 0
1.294779e-001 -1.842255e-001 -8.940045e-001 0 0 0
1.196008e-001 -1.835365e-001 -8.958254e-001 0 0 0
-4.400919e-002 -1.801994e-003 -1.750279e-002 0 255 0
-4.158882e-002 -1.746776e-003 -6.744415e-002 255 255 0
-8.413752e-001 -1.785703e-001 -4.390655e-001 255 0 0
-8.006716e-001 -1.694644e-001 -4.666390e-001 255 255 0
