ply
format ascii 1.0
element face 0
property list uchar int vertex_indices
element vertex 171
property float x
property float y
property float z
property uchar diffuse_red
property uchar diffuse_green
property uchar diffuse_blue
end_header
1.111439e-001 -1.193833e-001 -9.320365e-001 0 0 0
1.034826e-001 -1.270142e-001 -9.374014e-001 0 0 0
9.468572e-002 -1.261493e-001 -9.329904e-001 0 0 0
9.294932e-002 -1.209110e-001 -9.290040e-001 0 0 0
9.079432e-002 -1.200497e-001 -9.287056e-001 0 0 0
9.468103e-002 -1.209266e-001 -9.326959e-001 0 0 0
9.105104e-002 -1.245327e-001 -9.338089e-001 0 0 0
9.458294e-002 -1.292368e-001 -9.380780e-001 0 0 0
1.022454e-001 -1.345986e-001 -9.455420e-001 0 0 0
1.074908e-001 -1.377842e-001 -9.519961e-001 0 0 0
1.149595e-001 -1.434970e-001 -9.625745e-001 0 0 0
1.195395e-001 -1.485586e-001 -9.732451e-001 0 0 0
1.222995e-001 -1.575918e-001 -9.888445e-001 0 0 0
1.235585e-001 -1.662442e-001 -1.003386e+000 0 0 0
1.227041e-001 -1.731681e-001 -1.017021e+000 0 0 0
1.212601e-001 -1.802992e-001 -1.035710e+000 0 0 0
1.156665e-001 -1.856305e-001 -1.045893e+000 0 0 0
9.217664e-002 -1.976154e-001 -1.073093e+000 0 0 0
4.704469e-002 -2.085172e-001 -1.100093e+000 0 0 0
3.355518e-002 -2.113755e-001 -1.111406e+000 0 0 0
2.119798e-002 -2.119656e-001 -1.116614e+000 0 0 0
-9.073597e-003 -2.097970e-001 -1.119312e+000 0 0 0
-1.890733e-002 -2.065937e-001 -1.114606e+000 0 0 0
-2.459455e-002 -2.044344e-001 -1.110312e+000 0 0 0
-3.241287e-002 -2.009466e-001 -1.105026e+000 0 0 0
-3.855460e-002 -1.980253e-001 -1.100783e+000 0 0 0
-4.999399e-002 -1.924256e-001 -1.093837e+000 0 0 0
-6.056553e-002 -1.863936e-001 -1.085652e+000 0 0 0
-6.865389e-002 -1.820549e-001 -1.078710e+000 0 0 0
-8.078411e-002 -1.741834e-001 -1.066673e+000 0 0 0
-9.001834e-002 -1.677284e-001 -1.056784e+000 0 0 0
-9.983731e-002 -1.595287e-001 -1.044734e+000 0 0 0
-1.068541e-001 -1.534780e-001 -1.035698e+000 0 0 0
-1.181153e-001 -1.450868e-001 -1.022507e+000 0 0 0
-1.285297e-001 -1.378733e-001 -1.011417e+000 0 0 0
-1.420130e-001 -1.289701e-001 -9.995989e-001 0 0 0
-1.545786e-001 -1.209431e-001 -9.883860e-001 0 0 0
-1.700205e-001 -1.112797e-001 -9.763045e-001 0 0 0
-1.897632e-001 -1.034703e-001 -9.619484e-001 0 0 0
-2.079205e-001 -9.369091e-002 -9.453750e-001 0 0 0
-2.219981e-001 -8.495331e-002 -9.303437e-001 0 0 0
-2.344180e-001 -7.493955e-002 -9.161716e-001 0 0 0
-2.495663e-001 -6.142019e-002 -8.988792e-001 0 0 0
-2.626999e-001 -5.126782e-002 -8.840752e-001 0 0 0
-2.742361e-001 -4.098317e-002 -8.677159e-001 0 0 0
-2.855689e-001 -3.131301e-002 -8.498518e-001 0 0 0
-2.980449e-001 -1.864690e-002 -8.274049e-001 0 0 0
-3.077400e-001 -7.152493e-003 -8.059447e-001 0 0 0
-3.173895e-001 5.301386e-003 -7.830329e-001 0 0 0
-4.249268e-002 4.354374e-002 -5.517833e-001 0 0 0
-3.452907e-002 3.766879e-002 -5.574153e-001 0 0 0
-2.287476e-002 2.878795e-002 -5.677859e-001 0 0 0
-1.616386e-002 1.988467e-002 -5.814617e-001 0 0 0
-1.625713e-002 1.475855e-002 -5.922574e-001 0 0 0
-2.134603e-002 9.354939e-003 -6.091762e-001 0 0 0
-2.932369e-002 6.101177e-003 -6.236226e-001 0 0 0
-3.616000e-002 3.524109e-003 -6.341783e-001 0 0 0
-4.080032e-002 2.470060e-003 -6.385843e-001 0 0 0
-4.913007e-002 2.125626e-003 -6.417486e-001 0 0 0
-5.299459e-002 3.583277e-003 -6.395627e-001 0 0 0
-5.552993e-002 7.763152e-003 -6.340442e-001 0 0 0
-5.219620e-002 1.225614e-002 -6.277778e-001 0 0 0
-4.447365e-002 1.445137e-002 -6.211977e-001 0 0 0
-2.464659e-002 1.543470e-002 -6.200955e-001 0 0 0
6.049056e-002 8.526785e-004 -6.382029e-001 0 0 0
7.872580e-002 -7.913942e-003 -6.522316e-001 0 0 0
9.343629e-002 -1.578147e-002 -6.654454e-001 0 0 0
1.067563e-001 -2.586904e-002 -6.850320e-001 0 0 0
1.172309e-001 -3.948809e-002 -7.131964e-001 0 0 0
1.215870e-001 -4.822211e-002 -7.292321e-001 0 0 0
1.255443e-001 -6.026731e-002 -7.532464e-001 0 0 0
1.280850e-001 -7.048737e-002 -7.743284e-001 0 0 0
1.314034e-001 -8.206538e-002 -7.993779e-001 0 0 0
1.322775e-001 -9.185526e-002 -8.192539e-001 0 0 0
1.334850e-001 -1.025753e-001 -8.426801e-001 0 0 0
1.325555e-001 -1.128812e-001 -8.622393e-001 0 0 0
1.319065e-001 -1.225815e-001 -8.818683e-001 0 0 0
1.306146e-001 -1.339916e-001 -9.058018e-001 0 0 0
1.296446e-001 -1.440770e-001 -9.244996e-001 0 0 0
1.284525e-001 -1.550011e-001 -9.449185e-001 0 0 0
1.225366e-001 -1.649217e-001 -9.683747e-001 0 0 0
1.148579e-001 -1.707706e-001 -9.849465e-001 0 0 0
1.026611e-001 -1.753768e-001 -9.993716e-001 0 0 0
9.052812e-002 -1.805016e-001 -1.017905e+000 0 0 0
7.586425e-002 -1.858066e-001 -1.035991e+000 0 0 0
5.711779e-002 -1.884449e-001 -1.043822e+000 0 0 0
3.361020e-002 -1.920536e-001 -1.057851e+000 0 0 0
5.982018e-003 -1.947263e-001 -1.067314e+000 0 0 0
-1.482268e-002 -1.980649e-001 -1.080207e+000 0 0 0
-4.045407e-002 -1.995970e-001 -1.086373e+000 0 0 0
-6.550841e-002 -1.999945e-001 -1.084434e+000 0 0 0
-8.172375e-002 -2.016157e-001 -1.088772e+000 0 0 0
-1.004298e-001 -1.996333e-001 -1.082820e+000 0 0 0
-1.210597e-001 -1.944028e-001 -1.074704e+000 0 0 0
-1.379550e-001 -1.865294e-001 -1.063117e+000 0 0 0
-1.499746e-001 -1.777595e-001 -1.048748e+000 0 0 0
-1.584329e-001 -1.678264e-001 -1.031312e+000 0 0 0
-1.656186e-001 -1.505944e-001 -1.001548e+000 0 0 0
-1.687597e-001 -1.405339e-001 -9.847058e-001 0 0 0
-1.705642e-001 -1.295085e-001 -9.653167e-001 0 0 0
-1.729407e-001 -1.174893e-001 -9.445456e-001 0 0 0
-1.745595e-001 -1.027635e-001 -9.147046e-001 0 0 0
-1.772792e-001 -9.032371e-002 -8.913061e-001 0 0 0
-1.776540e-001 -7.568361e-002 -8.610895e-001 0 0 0
-1.774498e-001 -6.441684e-002 -8.372515e-001 0 0 0
-1.734440e-001 -4.923846e-002 -8.055658e-001 0 0 0
-1.564257e-001 -2.981218e-002 -7.603273e-001 0 0 0
-1.421868e-001 -1.800484e-002 -7.349010e-001 0 0 0
-1.091172e-001 -3.002573e-004 -6.942692e-001 0 0 0
-9.691932e-002 2.461561e-003 -6.782924e-001 0 0 0
-9.565996e-002 -2.079500e-003 -6.616036e-001 0 0 0
-1.162596e-001 -1.498261e-002 -6.532472e-001 0 0 0
-1.431247e-001 -2.316577e-002 -6.510593e-001 0 0 0
-1.655544e-001 -2.539089e-002 -6.577617e-001 0 0 0
-2.117539e-001 -2.249589e-002 -6.683778e-001 0 0 0
-2.364314e-001 -1.993263e-002 -6.915572e-001 0 0 0
-2.519802e-001 -1.733562e-002 -7.110666e-001 0 0 0
-2.593429e-001 -1.544128e-002 -7.334445e-001 0 0 0
-2.567861e-001 -5.682495e-003 -7.540229e-001 0 0 0
-2.516903e-001 1.045338e-002 -7.608409e-001 0 0 0
-2.483321e-001 3.314682e-002 -7.615706e-001 0 0 0
-2.428430e-001 6.529320e-002 -7.542992e-001 0 0 0
-2.372741e-001 9.355984e-002 -7.446660e-001 0 0 0
9.522337e-002 1.185890e-001 -7.553368e-001 0 0 0
1.035484e-001 1.066673e-001 -7.656611e-001 0 0 0
1.075036e-001 9.598954e-002 -7.747889e-001 0 0 0
1.120691e-001 8.413003e-002 -7.842240e-001 0 0 0
1.395408e-001 2.002924e-002 -8.759658e-001 0 0 0
1.395466e-001 1.600383e-002 -8.831077e-001 0 0 0
1.377866e-001 9.650384e-003 -8.933690e-001 0 0 0
1.344011e-001 1.472888e-003 -9.024043e-001 0 0 0
1.333191e-001 -1.731873e-003 -9.071963e-001 0 0 0
1.306672e-001 -4.794753e-003 -9.109375e-001 0 0 0
1.291114e-001 -4.778383e-003 -9.132329e-001 0 0 0
1.284435e-001 -4.475088e-003 -9.157384e-001 0 0 0
1.239296e-001 -2.767410e-003 -9.163752e-001 0 0 0
1.180930e-001 -1.216841e-003 -9.184310e-001 0 0 0
1.098931e-001 -4.272515e-004 -9.262198e-001 0 0 0
9.863872e-002 -6.901120e-004 -9.322055e-001 0 0 0
8.783640e-002 -1.098359e-003 -9.437760e-001 0 0 0
6.914224e-002 -1.834027e-003 -9.480873e-001 0 0 0
-4.152621e-002 -6.392539e-003 -1.004359e+000 0 0 0
-6.396483e-002 -4.318079e-003 -1.012501e+000 0 0 0
-8.455151e-002 -1.657341e-003 -1.018462e+000 0 0 0
-1.007464e-001 -8.360243e-004 -1.023534e+000 0 0 0
-1.168470e-001 1.045778e-004 -1.029062e+000 0 0 0
-1.733249e-001 2.664478e-003 -1.003231e+000 0 0 0
-1.753371e-001 3.787103e-003 -9.969115e-001 0 0 0
-1.818011e-001 6.344498e-003 -9.890659e-001 0 0 0
-1.906055e-001 1.039713e-002 -9.800128e-001 0 0 0
-2.009344e-001 1.788120e-002 -9.691489e-001 0 0 0
-2.080086e-001 2.928764e-002 -9.582641e-001 0 0 0
-2.201671e-001 4.731382e-002 -9.410777e-001 0 0 0
-2.311902e-001 6.537111e-002 -9.238398e-001 0 0 0
-2.408028e-001 8.526672e-002 -9.019651e-001 0 0 0
-2.464843e-001 9.955811e-002 -8.837760e-001 0 0 0
-2.521561e-001 1.176537e-001 -8.589379e-001 0 0 0
-2.578172e-001 1.402354e-001 -8.267038e-001 0 0 0
7.864411e-002 -2.992978e-002 -1.047933e+000 0 0 0
8.435992e-002 -2.312598e-002 -1.032606e+000 0 0 0
8.629830e-002 -1.370803e-002 -1.012427e+000 0 0 0
8.191194e-002 -5.121398e-003 -9.968065e-001 0 0 0
6.822422e-002 5.196476e-003 -9.827637e-001 0 0 0
-6.536343e-002 2.560855e-002 -1.006910e+000 0 0 0
-7.819487e-002 3.147149e-002 -1.019692e+000 0 0 0
-8.087465e-002 3.966038e-002 -1.029840e+000 0 0 0
-7.760568e-002 4.777137e-002 -1.033328e+000 0 0 0
-4.932417e-002 4.819787e-003 -1.609120e-001 0 255 0
-4.618169e-002 4.652539e-003 -2.108128e-001 255 255 0
-7.767885e-001 -4.029758e-002 -4.471372e-001 255 0 0
-7.342370e-001 -3.450766e-002 -4.727467e-001 255 255 0
