ply
format ascii 1.0
element face 0
property list uchar int vertex_indices
element vertex 203
property float x
property float y
property float z
property uchar diffuse_red
property uchar diffuse_green
property uchar diffuse_blue
end_header
1.176009e-001 -1.242480e-001 -9.355698e-001 0 0 0
1.102938e-001 -1.318764e-001 -9.419575e-001 0 0 0
9.992635e-002 -1.300047e-001 -9.367012e-001 0 0 0
9.780242e-002 -1.246735e-001 -9.310409e-001 0 0 0
9.522844e-002 -1.233919e-001 -9.310699e-001 0 0 0
9.951083e-002 -1.245726e-001 -9.347809e-001 0 0 0
9.638613e-002 -1.288229e-001 -9.366321e-001 0 0 0
1.012826e-001 -1.339865e-001 -9.422977e-001 0 0 0
1.107028e-001 -1.400341e-001 -9.515897e-001 0 0 0
1.174964e-001 -1.437878e-001 -9.585419e-001 0 0 0
1.289883e-001 -1.517173e-001 -9.736878e-001 0 0 0
1.341052e-001 -1.574866e-001 -9.850945e-001 0 0 0
1.417485e-001 -1.687432e-001 -1.005652e+000 0 0 0
1.462497e-001 -1.791372e-001 -1.024399e+000 0 0 0
1.480122e-001 -1.874375e-001 -1.040909e+000 0 0 0
1.486014e-001 -1.958609e-001 -1.061097e+000 0 0 0
1.449565e-001 -2.006510e-001 -1.075153e+000 0 0 0
1.227685e-001 -2.154040e-001 -1.110029e+000 0 0 0
7.964253e-002 -2.271526e-001 -1.145353e+000 0 0 0
6.381756e-002 -2.275328e-001 -1.153228e+000 0 0 0
5.085092e-002 -2.271133e-001 -1.157899e+000 0 0 0
1.718280e-002 -2.212942e-001 -1.157083e+000 0 0 0
5.838196e-003 -2.167735e-001 -1.150212e+000 0 0 0
-1.103362e-003 -2.134843e-001 -1.144257e+000 0 0 0
-1.100382e-002 -2.083087e-001 -1.135622e+000 0 0 0
-1.966648e-002 -2.035747e-001 -1.128320e+000 0 0 0
-3.149627e-002 -1.970338e-001 -1.119454e+000 0 0 0
-4.402750e-002 -1.892853e-001 -1.108433e+000 0 0 0
-5.362934e-002 -1.834565e-001 -1.099161e+000 0 0 0
-6.812326e-002 -1.738952e-001 -1.083830e+000 0 0 0
-7.761321e-002 -1.661421e-001 -1.071856e+000 0 0 0
-9.032606e-002 -1.555606e-001 -1.054335e+000 0 0 0
-9.847251e-002 -1.486475e-001 -1.043501e+000 0 0 0
-1.100470e-001 -1.391352e-001 -1.028295e+000 0 0 0
-1.229491e-001 -1.300351e-001 -1.013110e+000 0 0 0
-1.357746e-001 -1.200393e-001 -9.995743e-001 0 0 0
-1.500498e-001 -1.107805e-001 -9.862976e-001 0 0 0
-1.659150e-001 -1.001385e-001 -9.706464e-001 0 0 0
-1.841145e-001 -9.106392e-002 -9.555085e-001 0 0 0
-2.033940e-001 -7.996780e-002 -9.351363e-001 0 0 0
-2.170081e-001 -7.066299e-002 -9.186039e-001 0 0 0
-2.282106e-001 -6.051125e-002 -9.036849e-001 0 0 0
-2.429393e-001 -4.702601e-002 -8.850933e-001 0 0 0
-2.547040e-001 -3.665330e-002 -8.694261e-001 0 0 0
-2.653655e-001 -2.699575e-002 -8.534252e-001 0 0 0
-2.758181e-001 -1.770560e-002 -8.346101e-001 0 0 0
-2.868618e-001 -5.841948e-003 -8.127603e-001 0 0 0
-2.953794e-001 4.607188e-003 -7.921726e-001 0 0 0
-3.036745e-001 1.559361e-002 -7.699288e-001 0 0 0
-8.410966e-002 3.976047e-002 -5.606386e-001 0 0 0
-7.673704e-002 3.457501e-002 -5.650573e-001 0 0 0
-6.553988e-002 2.674721e-002 -5.733500e-001 0 0 0
-5.829022e-002 1.894822e-002 -5.847381e-001 0 0 0
-5.743537e-002 1.450757e-002 -5.941658e-001 0 0 0
-6.038849e-002 1.005043e-002 -6.095370e-001 0 0 0
-6.597154e-002 7.434525e-003 -6.217662e-001 0 0 0
-7.093956e-002 5.414866e-003 -6.309347e-001 0 0 0
-7.479959e-002 4.599514e-003 -6.352347e-001 0 0 0
-8.187221e-002 4.595200e-003 -6.382373e-001 0 0 0
-8.553056e-002 5.976258e-003 -6.363557e-001 0 0 0
-8.813601e-002 9.770539e-003 -6.313586e-001 0 0 0
-8.553614e-002 1.371747e-002 -6.257091e-001 0 0 0
-7.730671e-002 1.580643e-002 -6.199494e-001 0 0 0
-5.912633e-002 1.614192e-002 -6.183007e-001 0 0 0
1.934918e-002 4.679335e-004 -6.315796e-001 0 0 0
3.810626e-002 -8.280973e-003 -6.435502e-001 0 0 0
5.469560e-002 -1.584078e-002 -6.563092e-001 0 0 0
7.023450e-002 -2.592285e-002 -6.742246e-001 0 0 0
8.450331e-002 -3.956115e-002 -6.999739e-001 0 0 0
9.205415e-002 -4.811841e-002 -7.169572e-001 0 0 0
1.000595e-001 -6.027533e-002 -7.409484e-001 0 0 0
1.065301e-001 -7.070320e-002 -7.625528e-001 0 0 0
1.143652e-001 -8.293461e-002 -7.884401e-001 0 0 0
1.189306e-001 -9.343444e-002 -8.096452e-001 0 0 0
1.239627e-001 -1.051850e-001 -8.348405e-001 0 0 0
1.272584e-001 -1.160815e-001 -8.567727e-001 0 0 0
1.305063e-001 -1.266504e-001 -8.788222e-001 0 0 0
1.337629e-001 -1.397485e-001 -9.063233e-001 0 0 0
1.365588e-001 -1.510674e-001 -9.282948e-001 0 0 0
1.391475e-001 -1.638023e-001 -9.524957e-001 0 0 0
1.377053e-001 -1.744270e-001 -9.781499e-001 0 0 0
1.315360e-001 -1.819218e-001 -1.000116e+000 0 0 0
1.232725e-001 -1.873792e-001 -1.019333e+000 0 0 0
1.113828e-001 -1.916135e-001 -1.037698e+000 0 0 0
9.530259e-002 -1.971770e-001 -1.055804e+000 0 0 0
7.742831e-002 -2.001231e-001 -1.068778e+000 0 0 0
5.615661e-002 -2.027322e-001 -1.082716e+000 0 0 0
2.623829e-002 -2.048567e-001 -1.098382e+000 0 0 0
4.046269e-003 -2.057942e-001 -1.106902e+000 0 0 0
-2.273061e-002 -2.052888e-001 -1.111448e+000 0 0 0
-4.631916e-002 -2.039337e-001 -1.110400e+000 0 0 0
-6.761997e-002 -2.020195e-001 -1.106030e+000 0 0 0
-8.526191e-002 -1.990235e-001 -1.099977e+000 0 0 0
-1.102008e-001 -1.901006e-001 -1.086810e+000 0 0 0
-1.284641e-001 -1.803497e-001 -1.072478e+000 0 0 0
-1.419330e-001 -1.690042e-001 -1.053220e+000 0 0 0
-1.517914e-001 -1.575970e-001 -1.032009e+000 0 0 0
-1.608223e-001 -1.388024e-001 -9.978374e-001 0 0 0
-1.645519e-001 -1.280617e-001 -9.797686e-001 0 0 0
-1.678385e-001 -1.165585e-001 -9.581513e-001 0 0 0
-1.708807e-001 -1.045874e-001 -9.355561e-001 0 0 0
-1.746593e-001 -8.976584e-002 -9.048221e-001 0 0 0
-1.785735e-001 -7.716520e-002 -8.781130e-001 0 0 0
-1.808726e-001 -6.249761e-002 -8.472282e-001 0 0 0
-1.820905e-001 -5.172115e-002 -8.231030e-001 0 0 0
-1.804433e-001 -3.780245e-002 -7.915737e-001 0 0 0
-1.684354e-001 -2.042250e-002 -7.496257e-001 0 0 0
-1.570263e-001 -1.033432e-002 -7.254176e-001 0 0 0
-1.302794e-001 4.612684e-003 -6.863154e-001 0 0 0
-1.207003e-001 6.554540e-003 -6.715054e-001 0 0 0
-1.218367e-001 1.932940e-003 -6.568658e-001 0 0 0
-1.410525e-001 -8.965650e-003 -6.505723e-001 0 0 0
-1.642972e-001 -1.501121e-002 -6.494466e-001 0 0 0
-1.831619e-001 -1.635739e-002 -6.559140e-001 0 0 0
-2.213512e-001 -1.191916e-002 -6.670231e-001 0 0 0
-2.403695e-001 -9.173553e-003 -6.869626e-001 0 0 0
-2.526755e-001 -6.199661e-003 -7.049650e-001 0 0 0
-2.576902e-001 -4.295024e-003 -7.252155e-001 0 0 0
-2.544331e-001 4.217365e-003 -7.439628e-001 0 0 0
-2.491731e-001 1.880418e-002 -7.506415e-001 0 0 0
-2.457599e-001 3.896815e-002 -7.510763e-001 0 0 0
-2.411282e-001 6.698502e-002 -7.435733e-001 0 0 0
-2.362279e-001 9.187681e-002 -7.341674e-001 0 0 0
7.565778e-002 1.146597e-001 -7.418828e-001 0 0 0
8.477506e-002 1.036856e-001 -7.523301e-001 0 0 0
9.065954e-002 9.357890e-002 -7.622442e-001 0 0 0
9.670332e-002 8.227710e-002 -7.720875e-001 0 0 0
1.426689e-001 1.965508e-002 -8.730226e-001 0 0 0
1.443589e-001 1.585864e-002 -8.813521e-001 0 0 0
1.444581e-001 9.550828e-003 -8.920719e-001 0 0 0
1.427358e-001 1.237501e-003 -9.031781e-001 0 0 0
1.413243e-001 -2.130199e-003 -9.075889e-001 0 0 0
1.396025e-001 -5.279380e-003 -9.127843e-001 0 0 0
1.387885e-001 -5.225265e-003 -9.156364e-001 0 0 0
1.374977e-001 -4.735581e-003 -9.180549e-001 0 0 0
1.334741e-001 -2.962063e-003 -9.189796e-001 0 0 0
1.274853e-001 -1.156992e-003 -9.213578e-001 0 0 0
1.180588e-001 -1.133574e-004 -9.286995e-001 0 0 0
1.084948e-001 -6.312860e-005 -9.366116e-001 0 0 0
9.765670e-002 2.196245e-004 -9.451999e-001 0 0 0
8.073694e-002 4.605817e-004 -9.557404e-001 0 0 0
-2.978903e-002 -1.739616e-003 -1.014209e+000 0 0 0
-5.193994e-002 1.147484e-003 -1.022610e+000 0 0 0
-7.217054e-002 4.643002e-003 -1.028732e+000 0 0 0
-8.811140e-002 6.070260e-003 -1.033617e+000 0 0 0
-1.036176e-001 7.618099e-003 -1.039035e+000 0 0 0
-1.624326e-001 1.181650e-002 -1.003673e+000 0 0 0
-1.649311e-001 1.289313e-002 -9.972198e-001 0 0 0
-1.717178e-001 1.568171e-002 -9.876538e-001 0 0 0
-1.808125e-001 1.982632e-002 -9.768271e-001 0 0 0
-1.905655e-001 2.736439e-002 -9.648275e-001 0 0 0
-1.991498e-001 3.837739e-002 -9.507368e-001 0 0 0
-2.101410e-001 5.586523e-002 -9.325107e-001 0 0 0
-2.215068e-001 7.247915e-002 -9.136448e-001 0 0 0
-2.307037e-001 9.099184e-002 -8.907385e-001 0 0 0
-2.369124e-001 1.034652e-001 -8.698813e-001 0 0 0
-2.426219e-001 1.193209e-001 -8.456600e-001 0 0 0
-2.487517e-001 1.384343e-001 -8.133585e-001 0 0 0
1.093549e-001 -3.048036e-002 -1.076364e+000 0 0 0
1.128389e-001 -2.325023e-002 -1.057181e+000 0 0 0
1.110450e-001 -1.313609e-002 -1.031796e+000 0 0 0
1.031084e-001 -3.831255e-003 -1.012031e+000 0 0 0
8.472272e-002 7.286480e-003 -9.944797e-001 0 0 0
-5.368442e-002 3.337765e-002 -1.016348e+000 0 0 0
-6.371767e-002 3.949936e-002 -1.030334e+000 0 0 0
-6.475452e-002 4.829562e-002 -1.042520e+000 0 0 0
-6.030905e-002 5.679877e-002 -1.047322e+000 0 0 0
-2.178418e-001 6.930597e-002 -5.571120e-001 0 0 0
-2.003217e-001 6.695545e-002 -5.560499e-001 0 0 0
-1.808269e-001 6.442617e-002 -5.538951e-001 0 0 0
-1.668965e-001 6.309529e-002 -5.524142e-001 0 0 0
-1.438854e-001 6.146074e-002 -5.505491e-001 0 0 0
-1.239280e-001 5.839258e-002 -5.500309e-001 0 0 0
-1.098816e-001 5.417632e-002 -5.511505e-001 0 0 0
-2.302187e-001 1.111688e-001 -7.232764e-001 0 0 0
-2.200710e-001 1.302340e-001 -7.072874e-001 0 0 0
-2.047817e-001 1.456661e-001 -6.963549e-001 0 0 0
-1.831957e-001 1.580904e-001 -6.937888e-001 0 0 0
-1.593016e-001 1.613783e-001 -6.974124e-001 0 0 0
-1.389670e-001 1.611460e-001 -7.012764e-001 0 0 0
-1.107935e-001 1.587717e-001 -7.053634e-001 0 0 0
-2.519428e-001 1.618806e-001 -7.759382e-001 0 0 0
4.344643e-002 2.007360e-001 -7.074298e-001 0 0 0
5.861464e-002 1.903484e-001 -7.293636e-001 0 0 0
8.594254e-002 1.544640e-001 -8.398558e-001 0 0 0
7.509603e-002 1.459106e-001 -8.853715e-001 0 0 0
-3.216639e-002 1.453549e-002 -6.193028e-001 0 0 0
-9.256880e-003 9.311846e-003 -6.228670e-001 0 0 0
-1.450468e-001 3.593518e-004 -7.008628e-001 0 0 0
4.847050e-003 1.178461e-001 -9.859795e-001 0 0 0
-1.330814e-002 1.092810e-001 -1.005304e+000 0 0 0
-3.779920e-002 9.876646e-002 -1.025479e+000 0 0 0
-4.669067e-002 9.017200e-002 -1.036253e+000 0 0 0
-5.522759e-002 7.929911e-002 -1.053164e+000 0 0 0
-5.533722e-002 6.971941e-002 -1.073935e+000 0 0 0
-1.255233e-001 2.752737e-003 -2.704352e-001 0 255 0
-1.160142e-001 3.004560e-003 -3.195220e-001 255 255 0
-6.191228e-001 -1.114571e-002 -5.181126e-001 255 0 0
-5.771045e-001 -5.682261e-003 -5.446571e-001 255 255 0
4.852261e-001 -4.770222e-001 -1.112467e+000 0 255 0
4.511552e-001 -4.411546e-001 -1.105208e+000 255 255 0
-1.182018e-001 -4.572181e-001 -1.344242e+000 255 0 0
-1.131641e-001 -4.191900e-001 -1.312172e+000 255 255 0
