ply
format ascii 1.0
element face 0
property list uchar int vertex_indices
element vertex 120
property float x
property float y
property float z
property uchar diffuse_red
property uchar diffuse_green
property uchar diffuse_blue
end_header
-2.047762e-001 8.177284e-002 -1.014996e+000 0 0 0
-1.836161e-001 9.158485e-002 -9.989222e-001 0 0 0
-1.624037e-001 1.030841e-001 -9.776602e-001 0 0 0
-1.465346e-001 1.087881e-001 -9.586579e-001 0 0 0
-1.330403e-001 1.099794e-001 -9.434828e-001 0 0 0
-1.188143e-001 1.054090e-001 -9.283033e-001 0 0 0
-1.051820e-001 9.735905e-002 -9.124889e-001 0 0 0
-9.671190e-002 8.949598e-002 -9.000459e-001 0 0 0
-9.102896e-002 8.109792e-002 -8.900686e-001 0 0 0
-8.570260e-002 6.862570e-002 -8.787946e-001 0 0 0
-8.247208e-002 5.595678e-002 -8.690272e-001 0 0 0
-8.020082e-002 4.161564e-002 -8.594992e-001 0 0 0
-8.002690e-002 2.776880e-002 -8.542615e-001 0 0 0
-8.028083e-002 1.298058e-002 -8.502319e-001 0 0 0
-8.104727e-002 -2.146917e-003 -8.450600e-001 0 0 0
-8.265295e-002 -1.314974e-002 -8.392508e-001 0 0 0
-8.466971e-002 -2.375659e-002 -8.299505e-001 0 0 0
-8.790288e-002 -2.934605e-002 -8.178646e-001 0 0 0
-9.051748e-002 -2.454889e-002 -8.051720e-001 0 0 0
-9.080105e-002 -1.314735e-002 -7.968786e-001 0 0 0
-8.887410e-002 1.035042e-003 -7.912761e-001 0 0 0
-8.593853e-002 1.776950e-002 -7.933733e-001 0 0 0
-8.268208e-002 3.323398e-002 -7.988825e-001 0 0 0
-7.950772e-002 4.572020e-002 -8.074222e-001 0 0 0
-7.499123e-002 5.408154e-002 -8.168251e-001 0 0 0
-7.035888e-002 6.213487e-002 -8.326244e-001 0 0 0
-6.615923e-002 6.799704e-002 -8.515030e-001 0 0 0
-6.308520e-002 7.020483e-002 -8.705531e-001 0 0 0
-6.087805e-002 6.974981e-002 -8.921592e-001 0 0 0
-6.104035e-002 6.770362e-002 -9.157388e-001 0 0 0
-6.042340e-002 6.425958e-002 -9.352209e-001 0 0 0
-5.964784e-002 6.160367e-002 -9.536682e-001 0 0 0
-5.878975e-002 5.899979e-002 -9.679505e-001 0 0 0
-4.362885e-002 5.430930e-002 -9.958206e-001 0 0 0
-2.489943e-003 6.838832e-002 -9.886341e-001 0 0 0
6.008482e-003 7.188857e-002 -9.778430e-001 0 0 0
1.289071e-002 7.357203e-002 -9.651486e-001 0 0 0
1.854891e-002 7.062763e-002 -9.474764e-001 0 0 0
2.228435e-002 6.499376e-002 -9.273912e-001 0 0 0
2.224486e-002 5.789480e-002 -9.079937e-001 0 0 0
2.045166e-002 4.925348e-002 -8.897067e-001 0 0 0
1.623242e-002 3.914337e-002 -8.710725e-001 0 0 0
9.101073e-003 3.043258e-002 -8.517035e-001 0 0 0
-1.757759e-003 2.217076e-002 -8.358951e-001 0 0 0
-1.524385e-002 1.300526e-002 -8.188086e-001 0 0 0
-2.749056e-002 5.571351e-003 -8.072858e-001 0 0 0
-3.676025e-002 -6.774932e-004 -8.037744e-001 0 0 0
-4.523475e-002 -1.521634e-002 -7.996747e-001 0 0 0
-5.480737e-002 -3.583317e-002 -7.970936e-001 0 0 0
-6.659722e-002 -5.588037e-002 -7.952141e-001 0 0 0
-7.537868e-002 -7.460719e-002 -7.913132e-001 0 0 0
-6.389920e-002 -4.087309e-002 -7.600608e-001 0 0 0
-5.629123e-002 -1.574158e-002 -7.582522e-001 0 0 0
-4.787232e-002 1.643543e-002 -7.668953e-001 0 0 0
-4.396295e-002 4.939489e-002 -7.861837e-001 0 0 0
-4.344282e-002 7.252177e-002 -8.027738e-001 0 0 0
-4.564402e-002 9.622031e-002 -8.264058e-001 0 0 0
-5.036727e-002 1.156667e-001 -8.499933e-001 0 0 0
-5.795957e-002 1.308310e-001 -8.755543e-001 0 0 0
-6.963604e-002 1.409241e-001 -8.973869e-001 0 0 0
-8.704313e-002 1.484400e-001 -9.187988e-001 0 0 0
-1.067134e-001 1.513233e-001 -9.378433e-001 0 0 0
-1.236697e-001 1.507583e-001 -9.570751e-001 0 0 0
-1.396803e-001 1.486615e-001 -9.721465e-001 0 0 0
-1.600862e-001 1.478927e-001 -9.867146e-001 0 0 0
-1.824992e-001 1.482481e-001 -9.926174e-001 0 0 0
-2.068611e-001 1.511285e-001 -9.915958e-001 0 0 0
-2.254223e-001 1.523422e-001 -9.803949e-001 0 0 0
-2.366925e-001 1.565685e-001 -9.639040e-001 0 0 0
-2.351985e-001 1.586695e-001 -9.513071e-001 0 0 0
-2.272472e-001 1.610802e-001 -9.473591e-001 0 0 0
-2.121863e-001 1.635670e-001 -9.533995e-001 0 0 0
-1.996476e-001 1.656655e-001 -9.660413e-001 0 0 0
-1.934139e-001 1.638507e-001 -9.800794e-001 0 0 0
-1.937271e-001 1.608085e-001 -9.904143e-001 0 0 0
-2.003423e-001 1.581522e-001 -1.000634e+000 0 0 0
-2.100925e-001 1.541563e-001 -1.008159e+000 0 0 0
-2.226111e-001 1.477995e-001 -1.013683e+000 0 0 0
-2.377960e-001 1.416676e-001 -1.013949e+000 0 0 0
-2.620990e-001 1.383017e-001 -1.008893e+000 0 0 0
-2.787541e-001 1.343376e-001 -1.002335e+000 0 0 0
-3.071465e-001 1.363381e-001 -9.714339e-001 0 0 0
-3.038377e-001 1.404625e-001 -9.544708e-001 0 0 0
-2.998325e-001 1.513543e-001 -9.419125e-001 0 0 0
-2.827958e-001 1.649465e-001 -9.366054e-001 0 0 0
-2.620550e-001 1.747557e-001 -9.326424e-001 0 0 0
-2.428611e-001 1.813100e-001 -9.330960e-001 0 0 0
-2.231286e-001 1.836870e-001 -9.366940e-001 0 0 0
-2.058303e-001 1.845612e-001 -9.450719e-001 0 0 0
-1.879300e-001 1.818108e-001 -9.557835e-001 0 0 0
-1.708417e-001 1.783646e-001 -9.688207e-001 0 0 0
-1.555777e-001 1.713213e-001 -9.805858e-001 0 0 0
-1.421117e-001 1.606769e-001 -9.925396e-001 0 0 0
-1.334071e-001 1.495263e-001 -1.003890e+000 0 0 0
-1.275733e-001 1.365648e-001 -1.012483e+000 0 0 0
-1.243989e-001 1.226747e-001 -1.020588e+000 0 0 0
-1.259545e-001 9.540880e-002 -1.032288e+000 0 0 0
-1.371931e-001 8.698209e-002 -1.040949e+000 0 0 0
-1.559310e-001 7.889042e-002 -1.048856e+000 0 0 0
-1.656054e-001 7.337193e-002 -1.048967e+000 0 0 0
-1.800529e-001 7.003206e-002 -1.049476e+000 0 0 0
-1.948101e-001 6.733240e-002 -1.046713e+000 0 0 0
-2.124176e-001 6.421504e-002 -1.047655e+000 0 0 0
-2.312233e-001 6.010923e-002 -1.034977e+000 0 0 0
-2.501568e-001 4.983633e-002 -1.027893e+000 0 0 0
-5.603108e-002 5.615747e-002 -9.800330e-001 0 0 0
-4.953014e-002 5.358170e-002 -9.895212e-001 0 0 0
-3.242916e-002 5.429367e-002 -9.976078e-001 0 0 0
-2.339870e-002 5.862260e-002 -9.986785e-001 0 0 0
-1.315268e-002 6.344971e-002 -9.945963e-001 0 0 0
-2.918518e-001 1.344997e-001 -9.941475e-001 0 0 0
-1.231357e-001 1.081117e-001 -1.027714e+000 0 0 0
7.921281e-002 -5.091473e-003 -2.617565e-001 0 255 0
7.382367e-002 -5.581333e-003 -3.114628e-001 255 255 0
5.489808e-001 1.392544e-001 -5.823284e-001 255 0 0
5.114268e-001 1.311147e-001 -6.143198e-001 255 255 0
-6.175863e-001 4.953129e-001 -9.672598e-001 0 255 0
-5.830953e-001 4.592242e-001 -9.644352e-001 255 255 0
-8.824337e-002 6.095731e-001 -1.264537e+000 255 0 0
-8.365858e-002 5.661043e-001 -1.240258e+000 255 255 0
