ply
format ascii 1.0
element face 0
property list uchar int vertex_indices
element vertex 109
property float x
property float y
property float z
property uchar diffuse_red
property uchar diffuse_green
property uchar diffuse_blue
end_header
-1.835006e-001 7.750008e-002 -9.929298e-001 0 0 0
-1.693360e-001 8.831054e-002 -9.837384e-001 0 0 0
-1.550244e-001 1.013179e-001 -9.694030e-001 0 0 0
-1.457994e-001 1.082315e-001 -9.574659e-001 0 0 0
-1.358706e-001 1.114189e-001 -9.460919e-001 0 0 0
-1.253485e-001 1.086671e-001 -9.338100e-001 0 0 0
-1.160559e-001 1.024630e-001 -9.215412e-001 0 0 0
-1.107139e-001 9.563830e-002 -9.119387e-001 0 0 0
-1.070741e-001 8.825922e-002 -9.045668e-001 0 0 0
-1.030803e-001 7.631851e-002 -8.932739e-001 0 0 0
-1.011199e-001 6.340373e-002 -8.836031e-001 0 0 0
-1.000994e-001 4.892436e-002 -8.740380e-001 0 0 0
-1.002129e-001 3.488784e-002 -8.683089e-001 0 0 0
-9.998011e-002 2.005070e-002 -8.636826e-001 0 0 0
-1.015147e-001 3.909069e-003 -8.580935e-001 0 0 0
-1.035436e-001 -7.547413e-003 -8.522302e-001 0 0 0
-1.065201e-001 -1.864688e-002 -8.426082e-001 0 0 0
-1.120746e-001 -2.496002e-002 -8.300081e-001 0 0 0
-1.172475e-001 -2.037876e-002 -8.175060e-001 0 0 0
-1.201502e-001 -8.658295e-003 -8.100558e-001 0 0 0
-1.205711e-001 5.757718e-003 -8.061640e-001 0 0 0
-1.177535e-001 2.409627e-002 -8.088900e-001 0 0 0
-1.141632e-001 4.069122e-002 -8.155304e-001 0 0 0
-1.103954e-001 5.363266e-002 -8.254469e-001 0 0 0
-1.043385e-001 6.273117e-002 -8.344712e-001 0 0 0
-9.672480e-002 7.178533e-002 -8.511676e-001 0 0 0
-8.903749e-002 7.749992e-002 -8.702376e-001 0 0 0
-8.226419e-002 7.932692e-002 -8.869143e-001 0 0 0
-7.625401e-002 7.870632e-002 -9.083323e-001 0 0 0
-7.175045e-002 7.637046e-002 -9.270375e-001 0 0 0
-6.752379e-002 7.265406e-002 -9.447576e-001 0 0 0
-6.370339e-002 6.941070e-002 -9.608715e-001 0 0 0
-5.936315e-002 6.672076e-002 -9.700561e-001 0 0 0
-4.589949e-002 6.205447e-002 -9.997190e-001 0 0 0
-2.846578e-003 7.978876e-002 -9.966669e-001 0 0 0
3.236972e-003 8.385305e-002 -9.903184e-001 0 0 0
8.793514e-003 8.658925e-002 -9.799429e-001 0 0 0
1.210815e-002 8.442775e-002 -9.656259e-001 0 0 0
1.328728e-002 7.965897e-002 -9.496173e-001 0 0 0
1.107842e-002 7.251602e-002 -9.303891e-001 0 0 0
7.084882e-003 6.392478e-002 -9.140047e-001 0 0 0
2.419377e-004 5.284291e-002 -8.945803e-001 0 0 0
-9.055047e-003 4.368896e-002 -8.738737e-001 0 0 0
-2.317304e-002 3.354848e-002 -8.582129e-001 0 0 0
-4.037191e-002 2.299116e-002 -8.395090e-001 0 0 0
-5.453024e-002 1.452168e-002 -8.270401e-001 0 0 0
-6.408714e-002 7.290922e-003 -8.225999e-001 0 0 0
-7.301763e-002 -9.005167e-003 -8.162109e-001 0 0 0
-8.288637e-002 -3.157935e-002 -8.125099e-001 0 0 0
-9.280075e-002 -5.237392e-002 -8.080383e-001 0 0 0
-1.021649e-001 -7.284423e-002 -8.029775e-001 0 0 0
-9.889742e-002 -3.858898e-002 -7.746479e-001 0 0 0
-9.368551e-002 -1.169527e-002 -7.744008e-001 0 0 0
-8.502903e-002 2.379359e-002 -7.849033e-001 0 0 0
-7.784782e-002 6.082811e-002 -8.068974e-001 0 0 0
-7.541012e-002 8.535687e-002 -8.234051e-001 0 0 0
-7.431889e-002 1.097772e-001 -8.476790e-001 0 0 0
-7.609953e-002 1.284344e-001 -8.719365e-001 0 0 0
-7.919267e-002 1.421475e-001 -8.963577e-001 0 0 0
-8.709205e-002 1.499432e-001 -9.153208e-001 0 0 0
-1.002520e-001 1.544177e-001 -9.328068e-001 0 0 0
-1.156669e-001 1.542068e-001 -9.480843e-001 0 0 0
-1.268226e-001 1.511630e-001 -9.602385e-001 0 0 0
-1.394034e-001 1.462349e-001 -9.715369e-001 0 0 0
-1.528385e-001 1.430581e-001 -9.790377e-001 0 0 0
-1.732355e-001 1.408702e-001 -9.820781e-001 0 0 0
-1.927887e-001 1.405657e-001 -9.784527e-001 0 0 0
-2.131257e-001 1.420458e-001 -9.658457e-001 0 0 0
-2.234225e-001 1.445605e-001 -9.521946e-001 0 0 0
-2.255414e-001 1.473573e-001 -9.430383e-001 0 0 0
-2.203458e-001 1.504521e-001 -9.413146e-001 0 0 0
-2.061186e-001 1.548225e-001 -9.485172e-001 0 0 0
-1.927834e-001 1.573335e-001 -9.602537e-001 0 0 0
-1.844687e-001 1.549950e-001 -9.712974e-001 0 0 0
-1.822557e-001 1.511874e-001 -9.796228e-001 0 0 0
-1.850153e-001 1.478158e-001 -9.857992e-001 0 0 0
-1.922129e-001 1.422994e-001 -9.904429e-001 0 0 0
-2.005783e-001 1.358098e-001 -9.917654e-001 0 0 0
-2.140605e-001 1.281834e-001 -9.903581e-001 0 0 0
-2.362737e-001 1.227023e-001 -9.846513e-001 0 0 0
-2.554564e-001 1.212681e-001 -9.850056e-001 0 0 0
-2.781670e-001 1.199681e-001 -9.504150e-001 0 0 0
-2.797903e-001 1.245671e-001 -9.378192e-001 0 0 0
-2.788146e-001 1.346927e-001 -9.285817e-001 0 0 0
-2.666855e-001 1.490564e-001 -9.263802e-001 0 0 0
-2.534217e-001 1.599208e-001 -9.267254e-001 0 0 0
-2.381504e-001 1.684451e-001 -9.306115e-001 0 0 0
-2.201559e-001 1.736034e-001 -9.352674e-001 0 0 0
-2.023911e-001 1.749897e-001 -9.439564e-001 0 0 0
-1.859163e-001 1.744069e-001 -9.544763e-001 0 0 0
-1.668471e-001 1.712267e-001 -9.670936e-001 0 0 0
-1.522458e-001 1.657456e-001 -9.763883e-001 0 0 0
-1.373529e-001 1.565898e-001 -9.880151e-001 0 0 0
-1.268845e-001 1.458865e-001 -9.977457e-001 0 0 0
-1.185500e-001 1.334751e-001 -1.003771e+000 0 0 0
-1.137166e-001 1.210255e-001 -1.008681e+000 0 0 0
-1.120379e-001 9.503745e-002 -1.016962e+000 0 0 0
-1.206243e-001 8.632730e-002 -1.021422e+000 0 0 0
-1.350738e-001 7.749033e-002 -1.024414e+000 0 0 0
-1.431161e-001 7.185756e-002 -1.022930e+000 0 0 0
-1.551531e-001 6.791423e-002 -1.021242e+000 0 0 0
-1.679927e-001 6.460522e-002 -1.017145e+000 0 0 0
-1.822815e-001 6.073211e-002 -1.015398e+000 0 0 0
-2.001565e-001 5.609291e-002 -1.003424e+000 0 0 0
-2.165087e-001 4.594984e-002 -9.952261e-001 0 0 0
-3.230666e-002 -3.363718e-003 -2.137535e-002 0 255 0
-3.048592e-002 -3.190631e-003 -7.134189e-002 255 255 0
8.430586e-001 2.877524e-001 -5.512525e-001 255 0 0
8.014032e-001 2.750406e-001 -5.758133e-001 255 255 0
