ply
format ascii 1.0
element face 0
property list uchar int vertex_indices
element vertex 286
property float x
property float y
property float z
property uchar diffuse_red
property uchar diffuse_green
property uchar diffuse_blue
end_header
-1.766732e-002 -2.659361e-002 -1.183371e+000 0 0 0
-1.851815e-002 -2.631749e-002 -1.184203e+000 0 0 0
-1.875905e-002 -2.576638e-002 -1.184793e+000 0 0 0
-2.198373e-002 -2.776258e-002 -1.184883e+000 0 0 0
-2.177803e-002 -3.632060e-002 -1.184730e+000 0 0 0
-1.868120e-002 -4.786472e-002 -1.186948e+000 0 0 0
-1.424688e-002 -5.787116e-002 -1.186229e+000 0 0 0
-1.021518e-002 -6.503095e-002 -1.186520e+000 0 0 0
-2.824697e-003 -7.315418e-002 -1.188633e+000 0 0 0
4.311561e-003 -8.138640e-002 -1.190952e+000 0 0 0
1.415831e-002 -8.884765e-002 -1.190707e+000 0 0 0
2.625563e-002 -9.751411e-002 -1.192247e+000 0 0 0
3.485303e-002 -1.040822e-001 -1.194838e+000 0 0 0
4.262206e-002 -1.097300e-001 -1.196770e+000 0 0 0
4.700542e-002 -1.141291e-001 -1.201464e+000 0 0 0
4.739913e-002 -1.148662e-001 -1.207374e+000 0 0 0
4.414877e-002 -1.129577e-001 -1.214011e+000 0 0 0
3.916215e-002 -1.090507e-001 -1.221436e+000 0 0 0
2.872526e-002 -1.032212e-001 -1.230379e+000 0 0 0
1.764362e-002 -9.747830e-002 -1.236007e+000 0 0 0
6.092959e-003 -9.192140e-002 -1.239114e+000 0 0 0
-7.621909e-003 -8.374505e-002 -1.243123e+000 0 0 0
-1.835416e-002 -7.598099e-002 -1.249296e+000 0 0 0
-3.044656e-002 -6.815894e-002 -1.248948e+000 0 0 0
-4.265442e-002 -6.033867e-002 -1.247524e+000 0 0 0
-5.457623e-002 -5.325334e-002 -1.242960e+000 0 0 0
-6.473473e-002 -4.519129e-002 -1.241849e+000 0 0 0
-7.492766e-002 -3.680233e-002 -1.235949e+000 0 0 0
-8.134794e-002 -3.178265e-002 -1.230539e+000 0 0 0
-9.097193e-002 -2.488454e-002 -1.221429e+000 0 0 0
-9.669816e-002 -2.003314e-002 -1.213660e+000 0 0 0
-1.009944e-001 -1.582671e-002 -1.204902e+000 0 0 0
-1.042778e-001 -1.324506e-002 -1.196988e+000 0 0 0
-1.060898e-001 -1.049124e-002 -1.184325e+000 0 0 0
-1.078026e-001 -7.863153e-003 -1.175672e+000 0 0 0
-1.076991e-001 -4.485448e-003 -1.165749e+000 0 0 0
-1.067633e-001 -1.336326e-003 -1.157946e+000 0 0 0
-1.046124e-001 1.782286e-003 -1.150231e+000 0 0 0
-1.003346e-001 4.070745e-003 -1.142360e+000 0 0 0
-9.616347e-002 4.498971e-003 -1.134097e+000 0 0 0
-8.905540e-002 2.884918e-003 -1.126389e+000 0 0 0
-8.044186e-002 -6.132037e-004 -1.113591e+000 0 0 0
-6.885826e-002 -5.355432e-003 -1.105271e+000 0 0 0
-5.821504e-002 -1.158744e-002 -1.097506e+000 0 0 0
-4.624909e-002 -1.941461e-002 -1.092426e+000 0 0 0
-3.352539e-002 -2.662815e-002 -1.089876e+000 0 0 0
-2.147802e-002 -3.339953e-002 -1.087368e+000 0 0 0
-9.707916e-003 -3.874504e-002 -1.086499e+000 0 0 0
8.248862e-004 -4.389231e-002 -1.086075e+000 0 0 0
1.133061e-002 -4.881513e-002 -1.086363e+000 0 0 0
2.211480e-002 -5.429721e-002 -1.090029e+000 0 0 0
3.030632e-002 -5.878711e-002 -1.093503e+000 0 0 0
3.839552e-002 -6.322785e-002 -1.097842e+000 0 0 0
4.642863e-002 -6.822394e-002 -1.100471e+000 0 0 0
5.092742e-002 -7.246176e-002 -1.105985e+000 0 0 0
5.648529e-002 -7.718378e-002 -1.110510e+000 0 0 0
6.087039e-002 -8.135045e-002 -1.114243e+000 0 0 0
6.655307e-002 -8.443626e-002 -1.117223e+000 0 0 0
7.275223e-002 -8.749425e-002 -1.122939e+000 0 0 0
7.842828e-002 -9.041345e-002 -1.128302e+000 0 0 0
8.201561e-002 -9.426550e-002 -1.133804e+000 0 0 0
8.644008e-002 -9.906039e-002 -1.137093e+000 0 0 0
8.844271e-002 -1.019966e-001 -1.140737e+000 0 0 0
9.009927e-002 -1.048023e-001 -1.148192e+000 0 0 0
8.903424e-002 -1.061061e-001 -1.156437e+000 0 0 0
8.608811e-002 -1.069518e-001 -1.164634e+000 0 0 0
8.088878e-002 -1.075507e-001 -1.171992e+000 0 0 0
7.430522e-002 -1.074551e-001 -1.181408e+000 0 0 0
6.696453e-002 -1.060182e-001 -1.186570e+000 0 0 0
5.860193e-002 -1.049044e-001 -1.194554e+000 0 0 0
4.890833e-002 -1.034363e-001 -1.207558e+000 0 0 0
4.201348e-002 -1.018901e-001 -1.213055e+000 0 0 0
3.265423e-002 -9.691568e-002 -1.216681e+000 0 0 0
2.683216e-002 -9.240507e-002 -1.226512e+000 0 0 0
1.939098e-002 -8.675596e-002 -1.231517e+000 0 0 0
9.465680e-003 -7.887487e-002 -1.236275e+000 0 0 0
4.539946e-004 -7.166843e-002 -1.241498e+000 0 0 0
-1.056112e-002 -6.200727e-002 -1.247042e+000 0 0 0
-1.951575e-002 -5.315064e-002 -1.253067e+000 0 0 0
-2.947947e-002 -4.486650e-002 -1.256591e+000 0 0 0
-3.813765e-002 -3.869027e-002 -1.256674e+000 0 0 0
-4.703699e-002 -3.402547e-002 -1.259039e+000 0 0 0
-5.317693e-002 -3.339581e-002 -1.257982e+000 0 0 0
-6.135585e-002 -3.537006e-002 -1.252855e+000 0 0 0
-6.814275e-002 -3.975955e-002 -1.248533e+000 0 0 0
-7.740505e-002 -4.626655e-002 -1.241686e+000 0 0 0
-8.631664e-002 -5.444878e-002 -1.232540e+000 0 0 0
-9.281524e-002 -6.166072e-002 -1.225688e+000 0 0 0
-9.860797e-002 -6.681039e-002 -1.218778e+000 0 0 0
-1.039303e-001 -7.114311e-002 -1.211800e+000 0 0 0
-1.085037e-001 -7.519126e-002 -1.206562e+000 0 0 0
-1.110088e-001 -8.044341e-002 -1.200743e+000 0 0 0
-1.119625e-001 -8.805993e-002 -1.194259e+000 0 0 0
-1.127401e-001 -9.272674e-002 -1.189366e+000 0 0 0
-1.133965e-001 -9.886077e-002 -1.182480e+000 0 0 0
-1.133464e-001 -1.037036e-001 -1.175508e+000 0 0 0
-1.121680e-001 -1.068204e-001 -1.167733e+000 0 0 0
-1.104494e-001 -1.079990e-001 -1.158734e+000 0 0 0
-1.106899e-001 -1.056072e-001 -1.151264e+000 0 0 0
-1.123116e-001 -1.015391e-001 -1.142460e+000 0 0 0
-1.143624e-001 -9.727710e-002 -1.133008e+000 0 0 0
-1.174705e-001 -9.225666e-002 -1.120682e+000 0 0 0
-1.219818e-001 -8.594645e-002 -1.109354e+000 0 0 0
-1.267964e-001 -7.749370e-002 -1.096807e+000 0 0 0
-1.298196e-001 -6.786967e-002 -1.086090e+000 0 0 0
-1.323330e-001 -5.873508e-002 -1.073626e+000 0 0 0
-1.309238e-001 -5.221372e-002 -1.058095e+000 0 0 0
-1.241751e-001 -4.704633e-002 -1.043541e+000 0 0 0
-1.108069e-001 -4.328643e-002 -1.027306e+000 0 0 0
-9.685166e-002 -4.189349e-002 -1.014300e+000 0 0 0
-8.130440e-002 -4.297820e-002 -1.009337e+000 0 0 0
-6.944689e-002 -4.765144e-002 -1.006921e+000 0 0 0
-5.422326e-002 -5.814298e-002 -1.014209e+000 0 0 0
-3.928641e-002 -6.919377e-002 -1.023205e+000 0 0 0
-3.090374e-002 -8.053638e-002 -1.033923e+000 0 0 0
-2.638247e-002 -9.371971e-002 -1.051445e+000 0 0 0
-2.367303e-002 -1.026561e-001 -1.070213e+000 0 0 0
-2.113150e-002 -1.072384e-001 -1.086354e+000 0 0 0
-2.064372e-002 -1.085151e-001 -1.105876e+000 0 0 0
-1.908258e-002 -1.062249e-001 -1.124976e+000 0 0 0
-1.943235e-002 -1.022035e-001 -1.138437e+000 0 0 0
-2.050343e-002 -9.515194e-002 -1.151447e+000 0 0 0
-2.041944e-002 -8.546464e-002 -1.160941e+000 0 0 0
-2.041866e-002 -7.494439e-002 -1.167309e+000 0 0 0
-2.226943e-002 -6.439682e-002 -1.171001e+000 0 0 0
-2.572071e-002 -5.619488e-002 -1.173245e+000 0 0 0
-2.901176e-002 -5.131199e-002 -1.171532e+000 0 0 0
-3.013248e-002 -4.738031e-002 -1.169389e+000 0 0 0
-3.012982e-002 -4.645382e-002 -1.168605e+000 0 0 0
-3.029686e-002 -4.635540e-002 -1.166682e+000 0 0 0
-3.024869e-002 -4.613985e-002 -1.165773e+000 0 0 0
-3.018520e-002 -4.610464e-002 -1.164745e+000 0 0 0
-3.151417e-002 -4.552738e-002 -1.163401e+000 0 0 0
-3.188215e-002 -4.483183e-002 -1.161610e+000 0 0 0
-3.311430e-002 -4.308843e-002 -1.161014e+000 0 0 0
-3.383530e-002 -4.214808e-002 -1.159887e+000 0 0 0
-3.485053e-002 -4.101704e-002 -1.158998e+000 0 0 0
-3.575542e-002 -4.032431e-002 -1.159143e+000 0 0 0
-3.491291e-002 -4.132313e-002 -1.159473e+000 0 0 0
-3.329116e-002 -4.300531e-002 -1.159583e+000 0 0 0
-3.295748e-002 -4.502294e-002 -1.158544e+000 0 0 0
-3.267313e-002 -4.629731e-002 -1.158540e+000 0 0 0
-3.269356e-002 -4.639442e-002 -1.158914e+000 0 0 0
-3.304313e-002 -4.578900e-002 -1.159899e+000 0 0 0
-3.343612e-002 -4.573314e-002 -1.159979e+000 0 0 0
-3.335896e-002 -4.590315e-002 -1.160438e+000 0 0 0
-3.335896e-002 -4.590315e-002 -1.160438e+000 0 0 0
-3.335896e-002 -4.590315e-002 -1.160438e+000 0 0 0
-3.309764e-002 -4.600321e-002 -1.160863e+000 0 0 0
-3.309764e-002 -4.600321e-002 -1.160863e+000 0 0 0
-3.335679e-002 -4.616144e-002 -1.160630e+000 0 0 0
-3.310289e-002 -4.616285e-002 -1.160845e+000 0 0 0
-3.312435e-002 -4.651699e-002 -1.161200e+000 0 0 0
-3.310289e-002 -4.616285e-002 -1.160845e+000 0 0 0
-3.312435e-002 -4.651699e-002 -1.161200e+000 0 0 0
-3.312435e-002 -4.651699e-002 -1.161200e+000 0 0 0
-3.312435e-002 -4.651699e-002 -1.161200e+000 0 0 0
-3.312435e-002 -4.651699e-002 -1.161200e+000 0 0 0
-3.312435e-002 -4.651699e-002 -1.161200e+000 0 0 0
-3.329206e-002 -4.661974e-002 -1.161050e+000 0 0 0
-3.330722e-002 -4.673205e-002 -1.161351e+000 0 0 0
-3.330722e-002 -4.673205e-002 -1.161351e+000 0 0 0
-3.328616e-002 -4.684653e-002 -1.161109e+000 0 0 0
-3.328616e-002 -4.684653e-002 -1.161109e+000 0 0 0
-3.328616e-002 -4.684653e-002 -1.161109e+000 0 0 0
-3.311844e-002 -4.674380e-002 -1.161259e+000 0 0 0
-3.298813e-002 -4.687232e-002 -1.161359e+000 0 0 0
-3.298813e-002 -4.687232e-002 -1.161359e+000 0 0 0
-3.298813e-002 -4.687232e-002 -1.161359e+000 0 0 0
-3.298813e-002 -4.687232e-002 -1.161359e+000 0 0 0
-3.296998e-002 -4.700177e-002 -1.161169e+000 0 0 0
-3.308856e-002 -4.703512e-002 -1.160698e+000 0 0 0
-3.271064e-002 -4.690178e-002 -1.161028e+000 0 0 0
-3.272680e-002 -4.709651e-002 -1.161401e+000 0 0 0
-3.245859e-002 -4.730026e-002 -1.160782e+000 0 0 0
-3.270775e-002 -4.704637e-002 -1.161079e+000 0 0 0
-3.287967e-002 -4.719934e-002 -1.161263e+000 0 0 0
-3.245859e-002 -4.730026e-002 -1.160782e+000 0 0 0
-3.250959e-002 -4.731354e-002 -1.161567e+000 0 0 0
-3.250959e-002 -4.731354e-002 -1.161567e+000 0 0 0
-3.261894e-002 -4.745655e-002 -1.161463e+000 0 0 0
-3.259216e-002 -4.749599e-002 -1.161082e+000 0 0 0
-3.259216e-002 -4.749599e-002 -1.161082e+000 0 0 0
-3.233853e-002 -4.751367e-002 -1.161295e+000 0 0 0
-3.214447e-002 -4.772792e-002 -1.161735e+000 0 0 0
-3.235104e-002 -4.763862e-002 -1.161568e+000 0 0 0
-3.233853e-002 -4.751367e-002 -1.161295e+000 0 0 0
-3.246935e-002 -4.759789e-002 -1.161471e+000 0 0 0
-3.256325e-002 -4.772500e-002 -1.161381e+000 0 0 0
-3.214447e-002 -4.772792e-002 -1.161735e+000 0 0 0
-3.214447e-002 -4.772792e-002 -1.161735e+000 0 0 0
-3.214447e-002 -4.772792e-002 -1.161735e+000 0 0 0
-3.214447e-002 -4.772792e-002 -1.161735e+000 0 0 0
-3.254760e-002 -4.783336e-002 -1.161033e+000 0 0 0
-3.308309e-002 -4.775777e-002 -1.160586e+000 0 0 0
-3.252311e-002 -4.811712e-002 -1.160846e+000 0 0 0
-3.231152e-002 -4.804681e-002 -1.161031e+000 0 0 0
-3.231152e-002 -4.804681e-002 -1.161031e+000 0 0 0
-3.231152e-002 -4.804681e-002 -1.161031e+000 0 0 0
-3.254663e-002 -4.811520e-002 -1.161202e+000 0 0 0
-3.310355e-002 -4.779307e-002 -1.160918e+000 0 0 0
-3.310355e-002 -4.779307e-002 -1.160918e+000 0 0 0
-3.327006e-002 -4.758302e-002 -1.161113e+000 0 0 0
-3.352678e-002 -4.701019e-002 -1.161512e+000 0 0 0
-3.367043e-002 -4.662752e-002 -1.165653e+000 0 0 0
-3.423501e-002 -4.632674e-002 -1.173892e+000 0 0 0
-3.435395e-002 -4.988325e-002 -1.180330e+000 0 0 0
-2.632237e-002 -5.721506e-002 -1.188193e+000 0 0 0
-1.584940e-002 -6.619778e-002 -1.195873e+000 0 0 0
-9.465988e-003 -7.335570e-002 -1.199346e+000 0 0 0
-2.303327e-004 -8.057646e-002 -1.206432e+000 0 0 0
6.922558e-003 -8.516030e-002 -1.210052e+000 0 0 0
1.630932e-002 -8.851670e-002 -1.215112e+000 0 0 0
2.403549e-002 -9.263212e-002 -1.215370e+000 0 0 0
3.282801e-002 -9.938778e-002 -1.217920e+000 0 0 0
4.141846e-002 -1.055941e-001 -1.220573e+000 0 0 0
4.980225e-002 -1.101817e-001 -1.221023e+000 0 0 0
6.225298e-002 -1.131176e-001 -1.225777e+000 0 0 0
7.298685e-002 -1.146254e-001 -1.224337e+000 0 0 0
8.644758e-002 -1.139705e-001 -1.223887e+000 0 0 0
9.914968e-002 -1.113562e-001 -1.223921e+000 0 0 0
1.151471e-001 -1.054431e-001 -1.221993e+000 0 0 0
1.279836e-001 -1.002381e-001 -1.218174e+000 0 0 0
1.402694e-001 -9.630995e-002 -1.212519e+000 0 0 0
1.505630e-001 -9.548380e-002 -1.212063e+000 0 0 0
1.552527e-001 -9.833383e-002 -1.210567e+000 0 0 0
1.569674e-001 -1.040930e-001 -1.211073e+000 0 0 0
1.576515e-001 -1.111293e-001 -1.214838e+000 0 0 0
1.562832e-001 -1.175856e-001 -1.217563e+000 0 0 0
1.532675e-001 -1.239593e-001 -1.224740e+000 0 0 0
1.500612e-001 -1.278311e-001 -1.229216e+000 0 0 0
1.467756e-001 -1.325677e-001 -1.238336e+000 0 0 0
1.407762e-001 -1.380378e-001 -1.245837e+000 0 0 0
1.345661e-001 -1.417079e-001 -1.252185e+000 0 0 0
1.294298e-001 -1.451394e-001 -1.262005e+000 0 0 0
1.184169e-001 -1.475372e-001 -1.267639e+000 0 0 0
1.107342e-001 -1.481596e-001 -1.277461e+000 0 0 0
9.934773e-002 -1.476241e-001 -1.281786e+000 0 0 0
8.946419e-002 -1.458297e-001 -1.291084e+000 0 0 0
7.661283e-002 -1.427703e-001 -1.293603e+000 0 0 0
6.444329e-002 -1.388865e-001 -1.300089e+000 0 0 0
5.001452e-002 -1.348793e-001 -1.303534e+000 0 0 0
3.729944e-002 -1.318060e-001 -1.303337e+000 0 0 0
2.333899e-002 -1.283230e-001 -1.300410e+000 0 0 0
1.158165e-002 -1.241778e-001 -1.300170e+000 0 0 0
-2.632650e-003 -1.180804e-001 -1.298866e+000 0 0 0
-1.896003e-002 -1.105720e-001 -1.293408e+000 0 0 0
-3.373301e-002 -1.022155e-001 -1.292408e+000 0 0 0
-5.102162e-002 -9.165893e-002 -1.286921e+000 0 0 0
-6.468877e-002 -8.187687e-002 -1.279650e+000 0 0 0
-8.015675e-002 -7.081495e-002 -1.270330e+000 0 0 0
-9.471400e-002 -6.127791e-002 -1.258361e+000 0 0 0
-1.046396e-001 -5.303626e-002 -1.248291e+000 0 0 0
-1.126434e-001 -4.737228e-002 -1.236704e+000 0 0 0
-1.206054e-001 -4.228907e-002 -1.223468e+000 0 0 0
-1.260832e-001 -3.780040e-002 -1.212141e+000 0 0 0
-1.308414e-001 -3.362907e-002 -1.200947e+000 0 0 0
-1.357030e-001 -2.796631e-002 -1.186337e+000 0 0 0
-1.396779e-001 -2.182630e-002 -1.171864e+000 0 0 0
-1.417313e-001 -1.151998e-002 -1.149327e+000 0 0 0
-1.419042e-001 -3.477681e-003 -1.131147e+000 0 0 0
-1.387223e-001 6.662324e-003 -1.113435e+000 0 0 0
-1.329744e-001 1.877423e-002 -1.099577e+000 0 0 0
-1.258921e-001 3.364665e-002 -1.085251e+000 0 0 0
-1.174799e-001 4.992612e-002 -1.077389e+000 0 0 0
-1.069006e-001 6.793616e-002 -1.075050e+000 0 0 0
-9.785725e-002 8.122664e-002 -1.076792e+000 0 0 0
-9.262538e-002 8.785575e-002 -1.076510e+000 0 0 0
-9.233288e-002 8.633367e-002 -1.075529e+000 0 0 0
-9.368926e-002 7.695410e-002 -1.073726e+000 0 0 0
-9.670663e-002 5.992422e-002 -1.073386e+000 0 0 0
-9.944466e-002 3.621196e-002 -1.071900e+000 0 0 0
-1.003346e-001 1.241298e-002 -1.072570e+000 0 0 0
-9.905528e-002 -1.475277e-002 -1.072984e+000 0 0 0
-9.652833e-002 -3.362975e-002 -1.073470e+000 0 0 0
-9.325877e-002 -5.084096e-002 -1.071990e+000 0 0 0
-8.961015e-002 -6.432301e-002 -1.071657e+000 0 0 0
-8.460039e-002 -7.775085e-002 -1.071886e+000 0 0 0
-8.043606e-002 -8.973339e-002 -1.074472e+000 0 0 0
-7.803327e-002 -9.834498e-002 -1.078788e+000 0 0 0
-7.443469e-002 -1.048030e-001 -1.083886e+000 0 0 0
-7.109620e-002 -1.084153e-001 -1.092639e+000 0 0 0
3.663605e-002 -8.752160e-003 -8.329168e-002 0 255 0
3.500770e-002 -8.228652e-003 -1.332624e-001 255 255 0
-9.926731e-001 -6.249779e-002 -3.474291e-001 255 0 0
-9.520383e-001 -5.690027e-002 -3.760207e-001 255 255 0
