ply
format ascii 1.0
element face 0
property list uchar int vertex_indices
element vertex 290
property float x
property float y
property float z
property uchar diffuse_red
property uchar diffuse_green
property uchar diffuse_blue
end_header
-1.835696e-002 -2.717656e-002 -1.185291e+000 0 0 0
-1.906010e-002 -2.681713e-002 -1.185777e+000 0 0 0
-1.937639e-002 -2.631491e-002 -1.186398e+000 0 0 0
-2.197924e-002 -2.816976e-002 -1.187093e+000 0 0 0
-2.235002e-002 -3.643910e-002 -1.186169e+000 0 0 0
-1.978390e-002 -4.807340e-002 -1.186630e+000 0 0 0
-1.545543e-002 -5.791096e-002 -1.186745e+000 0 0 0
-1.138183e-002 -6.521401e-002 -1.187162e+000 0 0 0
-3.571375e-003 -7.384995e-002 -1.189317e+000 0 0 0
3.292349e-003 -8.190819e-002 -1.192018e+000 0 0 0
1.318308e-002 -8.962494e-002 -1.193557e+000 0 0 0
2.496889e-002 -9.857009e-002 -1.195317e+000 0 0 0
3.409085e-002 -1.057953e-001 -1.198393e+000 0 0 0
4.267774e-002 -1.125074e-001 -1.203123e+000 0 0 0
4.823835e-002 -1.171619e-001 -1.208542e+000 0 0 0
4.961952e-002 -1.187276e-001 -1.215828e+000 0 0 0
4.792048e-002 -1.176468e-001 -1.225299e+000 0 0 0
4.360890e-002 -1.144928e-001 -1.233806e+000 0 0 0
3.435344e-002 -1.086751e-001 -1.242400e+000 0 0 0
2.410930e-002 -1.034563e-001 -1.249917e+000 0 0 0
1.205328e-002 -9.663505e-002 -1.255405e+000 0 0 0
1.740792e-004 -8.914737e-002 -1.259394e+000 0 0 0
-1.157468e-002 -8.087649e-002 -1.262196e+000 0 0 0
-2.363351e-002 -7.247074e-002 -1.262617e+000 0 0 0
-3.487149e-002 -6.455579e-002 -1.260812e+000 0 0 0
-4.665507e-002 -5.637130e-002 -1.256875e+000 0 0 0
-5.825653e-002 -4.767600e-002 -1.251187e+000 0 0 0
-6.801311e-002 -3.955467e-002 -1.243327e+000 0 0 0
-7.630610e-002 -3.361507e-002 -1.234782e+000 0 0 0
-8.574098e-002 -2.613059e-002 -1.223564e+000 0 0 0
-9.130620e-002 -2.079878e-002 -1.214738e+000 0 0 0
-9.740623e-002 -1.597690e-002 -1.202466e+000 0 0 0
-1.015986e-001 -1.293355e-002 -1.190796e+000 0 0 0
-1.038122e-001 -9.490367e-003 -1.178741e+000 0 0 0
-1.067843e-001 -6.670772e-003 -1.166327e+000 0 0 0
-1.072827e-001 -2.823410e-003 -1.155840e+000 0 0 0
-1.071660e-001 6.037966e-004 -1.146466e+000 0 0 0
-1.055802e-001 3.599735e-003 -1.138363e+000 0 0 0
-1.026978e-001 6.399669e-003 -1.129863e+000 0 0 0
-9.913939e-002 6.942722e-003 -1.120669e+000 0 0 0
-9.393091e-002 5.836342e-003 -1.109764e+000 0 0 0
-8.635000e-002 2.659355e-003 -1.097759e+000 0 0 0
-7.755043e-002 -1.374741e-003 -1.087084e+000 0 0 0
-6.769790e-002 -7.576366e-003 -1.079216e+000 0 0 0
-5.748435e-002 -1.442143e-002 -1.075069e+000 0 0 0
-4.618410e-002 -2.152634e-002 -1.072814e+000 0 0 0
-3.493854e-002 -2.771204e-002 -1.071789e+000 0 0 0
-2.276420e-002 -3.324185e-002 -1.071605e+000 0 0 0
-1.228291e-002 -3.872165e-002 -1.072589e+000 0 0 0
-2.732695e-003 -4.327127e-002 -1.073628e+000 0 0 0
7.868815e-003 -4.904680e-002 -1.077677e+000 0 0 0
1.645199e-002 -5.379791e-002 -1.082182e+000 0 0 0
2.477568e-002 -5.873508e-002 -1.086988e+000 0 0 0
3.242627e-002 -6.360181e-002 -1.090566e+000 0 0 0
3.751061e-002 -6.843541e-002 -1.096165e+000 0 0 0
4.304361e-002 -7.326340e-002 -1.101567e+000 0 0 0
4.951328e-002 -7.793399e-002 -1.107374e+000 0 0 0
5.629665e-002 -8.170505e-002 -1.112130e+000 0 0 0
6.191263e-002 -8.510142e-002 -1.117143e+000 0 0 0
6.803944e-002 -8.857019e-002 -1.124240e+000 0 0 0
7.259592e-002 -9.259628e-002 -1.129819e+000 0 0 0
7.758884e-002 -9.765724e-002 -1.134779e+000 0 0 0
8.098185e-002 -1.014740e-001 -1.140218e+000 0 0 0
8.363871e-002 -1.045602e-001 -1.147595e+000 0 0 0
8.284549e-002 -1.065176e-001 -1.154958e+000 0 0 0
8.158570e-002 -1.084607e-001 -1.166984e+000 0 0 0
7.857197e-002 -1.093453e-001 -1.176554e+000 0 0 0
7.333456e-002 -1.101105e-001 -1.186812e+000 0 0 0
6.758315e-002 -1.089477e-001 -1.195180e+000 0 0 0
6.014854e-002 -1.081754e-001 -1.203684e+000 0 0 0
5.171178e-002 -1.076755e-001 -1.214537e+000 0 0 0
4.423352e-002 -1.056637e-001 -1.223933e+000 0 0 0
3.808933e-002 -1.019375e-001 -1.231445e+000 0 0 0
3.176753e-002 -9.699849e-002 -1.239839e+000 0 0 0
2.564511e-002 -9.178282e-002 -1.245908e+000 0 0 0
1.670074e-002 -8.409497e-002 -1.252404e+000 0 0 0
8.205840e-003 -7.692739e-002 -1.258822e+000 0 0 0
-1.923853e-003 -6.724429e-002 -1.264940e+000 0 0 0
-1.065885e-002 -5.882611e-002 -1.270192e+000 0 0 0
-1.959573e-002 -5.070619e-002 -1.274432e+000 0 0 0
-2.784601e-002 -4.370482e-002 -1.277429e+000 0 0 0
-3.729769e-002 -3.872408e-002 -1.277119e+000 0 0 0
-4.466178e-002 -3.787527e-002 -1.273272e+000 0 0 0
-5.244358e-002 -3.957300e-002 -1.267465e+000 0 0 0
-6.006710e-002 -4.336851e-002 -1.260365e+000 0 0 0
-7.006038e-002 -4.940482e-002 -1.249830e+000 0 0 0
-7.895990e-002 -5.595644e-002 -1.238881e+000 0 0 0
-8.747792e-002 -6.229078e-002 -1.226657e+000 0 0 0
-9.473405e-002 -6.671406e-002 -1.215422e+000 0 0 0
-9.981366e-002 -7.034037e-002 -1.207713e+000 0 0 0
-1.049487e-001 -7.354952e-002 -1.200436e+000 0 0 0
-1.079108e-001 -7.813285e-002 -1.192762e+000 0 0 0
-1.095969e-001 -8.445972e-002 -1.184636e+000 0 0 0
-1.115218e-001 -8.924185e-002 -1.176545e+000 0 0 0
-1.126258e-001 -9.388094e-002 -1.168477e+000 0 0 0
-1.130200e-001 -9.797826e-002 -1.159664e+000 0 0 0
-1.127134e-001 -9.998273e-002 -1.150448e+000 0 0 0
-1.119843e-001 -1.005110e-001 -1.140568e+000 0 0 0
-1.127974e-001 -9.741813e-002 -1.131701e+000 0 0 0
-1.148861e-001 -9.313723e-002 -1.122237e+000 0 0 0
-1.182391e-001 -8.807076e-002 -1.110662e+000 0 0 0
-1.219066e-001 -8.227036e-002 -1.097227e+000 0 0 0
-1.273604e-001 -7.543868e-002 -1.084501e+000 0 0 0
-1.317688e-001 -6.641089e-002 -1.072081e+000 0 0 0
-1.360253e-001 -5.728004e-002 -1.061067e+000 0 0 0
-1.387769e-001 -4.742859e-002 -1.046555e+000 0 0 0
-1.385879e-001 -4.055191e-002 -1.030791e+000 0 0 0
-1.339872e-001 -3.505472e-002 -1.013398e+000 0 0 0
-1.234332e-001 -3.142783e-002 -9.987127e-001 0 0 0
-1.120822e-001 -2.935265e-002 -9.873861e-001 0 0 0
-9.883764e-002 -3.079179e-002 -9.822589e-001 0 0 0
-8.806306e-002 -3.491181e-002 -9.813020e-001 0 0 0
-7.384503e-002 -4.534346e-002 -9.895027e-001 0 0 0
-5.853577e-002 -5.694278e-002 -9.997728e-001 0 0 0
-4.979008e-002 -6.831286e-002 -1.011681e+000 0 0 0
-4.416065e-002 -8.135316e-002 -1.029755e+000 0 0 0
-3.931143e-002 -9.145025e-002 -1.050132e+000 0 0 0
-3.533287e-002 -9.738732e-002 -1.067569e+000 0 0 0
-3.217935e-002 -1.002813e-001 -1.090018e+000 0 0 0
-2.858415e-002 -9.982089e-002 -1.111174e+000 0 0 0
-2.728644e-002 -9.672514e-002 -1.127020e+000 0 0 0
-2.699671e-002 -9.196246e-002 -1.139475e+000 0 0 0
-2.486797e-002 -8.320247e-002 -1.153089e+000 0 0 0
-2.363830e-002 -7.290471e-002 -1.163151e+000 0 0 0
-2.482120e-002 -6.327562e-002 -1.167469e+000 0 0 0
-2.814901e-002 -5.522569e-002 -1.168861e+000 0 0 0
-3.145009e-002 -5.011836e-002 -1.167556e+000 0 0 0
-3.269410e-002 -4.629496e-002 -1.166100e+000 0 0 0
-3.234320e-002 -4.523715e-002 -1.164770e+000 0 0 0
-3.336718e-002 -4.509670e-002 -1.162447e+000 0 0 0
-3.372690e-002 -4.477999e-002 -1.161029e+000 0 0 0
-3.360762e-002 -4.461507e-002 -1.159770e+000 0 0 0
-3.469153e-002 -4.398918e-002 -1.158102e+000 0 0 0
-3.546314e-002 -4.296138e-002 -1.156318e+000 0 0 0
-3.671636e-002 -4.153484e-002 -1.155279e+000 0 0 0
-3.743835e-002 -4.047450e-002 -1.154449e+000 0 0 0
-3.836951e-002 -3.933022e-002 -1.153741e+000 0 0 0
-3.927165e-002 -3.871468e-002 -1.153631e+000 0 0 0
-3.873964e-002 -3.960852e-002 -1.153487e+000 0 0 0
-3.751471e-002 -4.122234e-002 -1.153205e+000 0 0 0
-3.682682e-002 -4.309435e-002 -1.153130e+000 0 0 0
-3.637998e-002 -4.445383e-002 -1.152967e+000 0 0 0
-3.638502e-002 -4.461095e-002 -1.153128e+000 0 0 0
-3.694353e-002 -4.401993e-002 -1.153547e+000 0 0 0
-3.713924e-002 -4.382941e-002 -1.154154e+000 0 0 0
-3.714820e-002 -4.399217e-002 -1.154366e+000 0 0 0
-3.715090e-002 -4.402991e-002 -1.154561e+000 0 0 0
-3.709068e-002 -4.404311e-002 -1.154622e+000 0 0 0
-3.704923e-002 -4.414409e-002 -1.154617e+000 0 0 0
-3.715375e-002 -4.417147e-002 -1.154450e+000 0 0 0
-3.720974e-002 -4.425900e-002 -1.154471e+000 0 0 0
-3.697794e-002 -4.434825e-002 -1.154621e+000 0 0 0
-3.702919e-002 -4.463961e-002 -1.154765e+000 0 0 0
-3.688057e-002 -4.446758e-002 -1.154848e+000 0 0 0
-3.693376e-002 -4.462759e-002 -1.154836e+000 0 0 0
-3.693376e-002 -4.462759e-002 -1.154836e+000 0 0 0
-3.681040e-002 -4.473680e-002 -1.154947e+000 0 0 0
-3.668682e-002 -4.471427e-002 -1.155299e+000 0 0 0
-3.679841e-002 -4.482904e-002 -1.155275e+000 0 0 0
-3.661806e-002 -4.484192e-002 -1.155246e+000 0 0 0
-3.670400e-002 -4.488184e-002 -1.155325e+000 0 0 0
-3.668985e-002 -4.503546e-002 -1.155470e+000 0 0 0
-3.666474e-002 -4.496762e-002 -1.155250e+000 0 0 0
-3.670791e-002 -4.497357e-002 -1.155171e+000 0 0 0
-3.661751e-002 -4.501731e-002 -1.155367e+000 0 0 0
-3.657799e-002 -4.500898e-002 -1.155249e+000 0 0 0
-3.656985e-002 -4.514392e-002 -1.155277e+000 0 0 0
-3.641764e-002 -4.513588e-002 -1.155199e+000 0 0 0
-3.641764e-002 -4.513588e-002 -1.155199e+000 0 0 0
-3.642837e-002 -4.516918e-002 -1.155266e+000 0 0 0
-3.644097e-002 -4.528302e-002 -1.155173e+000 0 0 0
-3.651730e-002 -4.525517e-002 -1.154913e+000 0 0 0
-3.630399e-002 -4.522864e-002 -1.154996e+000 0 0 0
-3.633457e-002 -4.539221e-002 -1.155172e+000 0 0 0
-3.617266e-002 -4.546007e-002 -1.155010e+000 0 0 0
-3.629828e-002 -4.531980e-002 -1.155033e+000 0 0 0
-3.636223e-002 -4.542349e-002 -1.155112e+000 0 0 0
-3.617266e-002 -4.546007e-002 -1.155010e+000 0 0 0
-3.620629e-002 -4.553947e-002 -1.155290e+000 0 0 0
-3.618918e-002 -4.552699e-002 -1.155341e+000 0 0 0
-3.620734e-002 -4.561040e-002 -1.155365e+000 0 0 0
-3.619013e-002 -4.563962e-002 -1.155235e+000 0 0 0
-3.617459e-002 -4.560259e-002 -1.155182e+000 0 0 0
-3.612592e-002 -4.568289e-002 -1.155324e+000 0 0 0
-3.595616e-002 -4.591052e-002 -1.155444e+000 0 0 0
-3.614638e-002 -4.577253e-002 -1.155395e+000 0 0 0
-3.613101e-002 -4.564739e-002 -1.155156e+000 0 0 0
-3.616051e-002 -4.571326e-002 -1.155186e+000 0 0 0
-3.625578e-002 -4.580543e-002 -1.155100e+000 0 0 0
-3.602935e-002 -4.584066e-002 -1.155251e+000 0 0 0
-3.603158e-002 -4.586507e-002 -1.155192e+000 0 0 0
-3.596455e-002 -4.590101e-002 -1.155213e+000 0 0 0
-3.604667e-002 -4.586956e-002 -1.155122e+000 0 0 0
-3.621316e-002 -4.594598e-002 -1.154821e+000 0 0 0
-3.647177e-002 -4.583637e-002 -1.154716e+000 0 0 0
-3.617660e-002 -4.610115e-002 -1.154772e+000 0 0 0
-3.605587e-002 -4.611422e-002 -1.154850e+000 0 0 0
-3.612061e-002 -4.607520e-002 -1.154840e+000 0 0 0
-3.605587e-002 -4.611422e-002 -1.154850e+000 0 0 0
-3.622749e-002 -4.616609e-002 -1.154956e+000 0 0 0
-3.652483e-002 -4.595260e-002 -1.154976e+000 0 0 0
-3.654738e-002 -4.605182e-002 -1.154926e+000 0 0 0
-3.686421e-002 -4.581279e-002 -1.154854e+000 0 0 0
-3.735389e-002 -4.521925e-002 -1.155685e+000 0 0 0
-3.714691e-002 -4.495736e-002 -1.160188e+000 0 0 0
-3.694068e-002 -4.532722e-002 -1.168825e+000 0 0 0
-3.600208e-002 -4.928596e-002 -1.177607e+000 0 0 0
-2.733993e-002 -5.732018e-002 -1.187581e+000 0 0 0
-1.631432e-002 -6.686680e-002 -1.196301e+000 0 0 0
-9.250025e-003 -7.458972e-002 -1.202707e+000 0 0 0
6.561632e-004 -8.221474e-002 -1.210983e+000 0 0 0
8.506494e-003 -8.730639e-002 -1.216009e+000 0 0 0
1.825208e-002 -9.156482e-002 -1.221737e+000 0 0 0
2.765845e-002 -9.664197e-002 -1.225676e+000 0 0 0
3.589042e-002 -1.033258e-001 -1.228562e+000 0 0 0
4.477915e-002 -1.104133e-001 -1.231688e+000 0 0 0
5.425148e-002 -1.152815e-001 -1.234447e+000 0 0 0
6.632141e-002 -1.193230e-001 -1.237859e+000 0 0 0
7.840874e-002 -1.206423e-001 -1.240127e+000 0 0 0
9.264305e-002 -1.215733e-001 -1.242038e+000 0 0 0
1.062926e-001 -1.185266e-001 -1.243254e+000 0 0 0
1.224649e-001 -1.129063e-001 -1.241969e+000 0 0 0
1.363550e-001 -1.081821e-001 -1.238489e+000 0 0 0
1.484841e-001 -1.039638e-001 -1.234503e+000 0 0 0
1.581711e-001 -1.038238e-001 -1.232875e+000 0 0 0
1.637206e-001 -1.061832e-001 -1.232898e+000 0 0 0
1.674146e-001 -1.132328e-001 -1.235880e+000 0 0 0
1.682367e-001 -1.208441e-001 -1.240058e+000 0 0 0
1.684283e-001 -1.281008e-001 -1.244780e+000 0 0 0
1.657832e-001 -1.349643e-001 -1.252561e+000 0 0 0
1.638835e-001 -1.403219e-001 -1.260947e+000 0 0 0
1.616704e-001 -1.454476e-001 -1.269391e+000 0 0 0
1.564314e-001 -1.513379e-001 -1.277367e+000 0 0 0
1.514482e-001 -1.557551e-001 -1.284724e+000 0 0 0
1.457784e-001 -1.594601e-001 -1.292970e+000 0 0 0
1.362086e-001 -1.631857e-001 -1.303550e+000 0 0 0
1.282827e-001 -1.635855e-001 -1.312425e+000 0 0 0
1.191458e-001 -1.633987e-001 -1.319711e+000 0 0 0
1.085541e-001 -1.620820e-001 -1.326823e+000 0 0 0
9.659236e-002 -1.578198e-001 -1.331685e+000 0 0 0
8.223540e-002 -1.537315e-001 -1.336263e+000 0 0 0
6.794301e-002 -1.501744e-001 -1.338766e+000 0 0 0
5.395571e-002 -1.454305e-001 -1.338281e+000 0 0 0
4.125696e-002 -1.414069e-001 -1.336079e+000 0 0 0
2.693277e-002 -1.361203e-001 -1.332148e+000 0 0 0
1.305037e-002 -1.299453e-001 -1.328201e+000 0 0 0
-3.752710e-003 -1.207857e-001 -1.322742e+000 0 0 0
-1.975329e-002 -1.115367e-001 -1.316566e+000 0 0 0
-3.782056e-002 -9.972345e-002 -1.308339e+000 0 0 0
-5.066187e-002 -8.933758e-002 -1.298882e+000 0 0 0
-6.941216e-002 -7.571122e-002 -1.284001e+000 0 0 0
-8.476706e-002 -6.463269e-002 -1.269170e+000 0 0 0
-9.632083e-002 -5.533085e-002 -1.253635e+000 0 0 0
-1.063327e-001 -4.864636e-002 -1.237619e+000 0 0 0
-1.140261e-001 -4.252134e-002 -1.222149e+000 0 0 0
-1.208029e-001 -3.727885e-002 -1.207107e+000 0 0 0
-1.270336e-001 -3.260416e-002 -1.192378e+000 0 0 0
-1.321122e-001 -2.601085e-002 -1.175878e+000 0 0 0
-1.370602e-001 -1.928968e-002 -1.156924e+000 0 0 0
-1.404086e-001 -7.940066e-003 -1.133498e+000 0 0 0
-1.420932e-001 2.302642e-004 -1.112307e+000 0 0 0
-1.404213e-001 1.034448e-002 -1.095189e+000 0 0 0
-1.367529e-001 2.229738e-002 -1.078241e+000 0 0 0
-1.308137e-001 3.687991e-002 -1.065467e+000 0 0 0
-1.231434e-001 5.208699e-002 -1.058678e+000 0 0 0
-1.141704e-001 6.883741e-002 -1.057468e+000 0 0 0
-1.058158e-001 8.122953e-002 -1.060128e+000 0 0 0
-1.006243e-001 8.727593e-002 -1.061754e+000 0 0 0
-1.004121e-001 8.581124e-002 -1.060043e+000 0 0 0
-1.020924e-001 7.699787e-002 -1.057431e+000 0 0 0
-1.048698e-001 6.123836e-002 -1.056511e+000 0 0 0
-1.072488e-001 3.977712e-002 -1.054293e+000 0 0 0
-1.091564e-001 1.695461e-002 -1.052797e+000 0 0 0
-1.078040e-001 -7.587142e-003 -1.052021e+000 0 0 0
-1.059889e-001 -2.588376e-002 -1.050394e+000 0 0 0
-1.035861e-001 -4.135831e-002 -1.049089e+000 0 0 0
-1.004162e-001 -5.379900e-002 -1.048125e+000 0 0 0
-9.627922e-002 -6.673596e-002 -1.047384e+000 0 0 0
-9.233840e-002 -7.776474e-002 -1.049721e+000 0 0 0
-8.961793e-002 -8.572264e-002 -1.053779e+000 0 0 0
-8.543656e-002 -9.272160e-002 -1.060819e+000 0 0 0
-8.208290e-002 -9.682401e-002 -1.069167e+000 0 0 0
-8.566653e-002 3.361374e-002 -2.390638e-001 0 255 0
-8.114949e-002 3.192355e-002 -2.888306e-001 255 255 0
-6.938916e-001 -3.430981e-003 -4.812116e-001 255 0 0
-6.553141e-001 1.044969e-003 -5.127035e-001 255 255 0
4.710794e-001 -4.871033e-001 -1.296150e+000 0 255 0
4.368225e-001 -4.524382e-001 -1.284979e+000 255 255 0
-1.712907e-001 -5.005117e-001 -1.483450e+000 255 0 0
-1.641232e-001 -4.616679e-001 -1.452794e+000 255 255 0
