ply
format ascii 1.0
element face 0
property list uchar int vertex_indices
element vertex 114
property float x
property float y
property float z
property uchar diffuse_red
property uchar diffuse_green
property uchar diffuse_blue
end_header
3.805415e-003 -1.851601e-001 -1.091205e+000 0 0 0
3.747541e-003 -1.807594e-001 -1.092695e+000 0 0 0
3.121708e-003 -1.805742e-001 -1.094222e+000 0 0 0
4.423153e-003 -1.812989e-001 -1.095022e+000 0 0 0
5.955954e-003 -1.815226e-001 -1.094929e+000 0 0 0
6.674293e-003 -1.821394e-001 -1.096181e+000 0 0 0
7.066888e-003 -1.826308e-001 -1.096126e+000 0 0 0
7.071017e-003 -1.829918e-001 -1.095349e+000 0 0 0
7.552539e-003 -1.828187e-001 -1.095762e+000 0 0 0
7.520068e-003 -1.822994e-001 -1.097877e+000 0 0 0
6.663397e-003 -1.819432e-001 -1.096908e+000 0 0 0
6.687878e-003 -1.817424e-001 -1.095428e+000 0 0 0
6.762923e-003 -1.812990e-001 -1.093235e+000 0 0 0
6.797947e-003 -1.808940e-001 -1.092688e+000 0 0 0
5.373835e-003 -1.760459e-001 -1.093777e+000 0 0 0
4.477988e-003 -1.663497e-001 -1.103888e+000 0 0 0
1.272445e-003 -1.548007e-001 -1.116982e+000 0 0 0
4.658934e-004 -1.477464e-001 -1.128977e+000 0 0 0
1.189302e-003 -1.406193e-001 -1.143977e+000 0 0 0
3.721399e-003 -1.340347e-001 -1.157811e+000 0 0 0
9.353922e-003 -1.272994e-001 -1.172348e+000 0 0 0
1.408660e-002 -1.218012e-001 -1.192266e+000 0 0 0
1.735844e-002 -1.221513e-001 -1.207613e+000 0 0 0
1.587450e-002 -1.256764e-001 -1.221990e+000 0 0 0
1.008297e-002 -1.293299e-001 -1.227798e+000 0 0 0
-2.919593e-003 -1.347206e-001 -1.236575e+000 0 0 0
-2.413468e-002 -1.369658e-001 -1.243392e+000 0 0 0
-4.557640e-002 -1.367586e-001 -1.251180e+000 0 0 0
-6.938108e-002 -1.329458e-001 -1.251762e+000 0 0 0
-9.208144e-002 -1.273352e-001 -1.249770e+000 0 0 0
-1.058284e-001 -1.203949e-001 -1.248600e+000 0 0 0
-1.237588e-001 -1.083629e-001 -1.239141e+000 0 0 0
-1.356111e-001 -9.766725e-002 -1.230778e+000 0 0 0
-1.473917e-001 -8.434511e-002 -1.218721e+000 0 0 0
-1.562173e-001 -7.247115e-002 -1.205950e+000 0 0 0
-1.622241e-001 -5.920814e-002 -1.190945e+000 0 0 0
-1.670174e-001 -4.715648e-002 -1.173687e+000 0 0 0
-1.697126e-001 -3.272484e-002 -1.149851e+000 0 0 0
-1.687304e-001 -1.976429e-002 -1.128857e+000 0 0 0
-1.645698e-001 -6.494928e-003 -1.109295e+000 0 0 0
-1.565536e-001 7.628082e-003 -1.086835e+000 0 0 0
-1.425586e-001 1.965448e-002 -1.069207e+000 0 0 0
-1.233510e-001 2.820403e-002 -1.046928e+000 0 0 0
-3.684164e-002 2.916650e-003 -1.034088e+000 0 0 0
-3.037273e-002 -1.058542e-002 -1.049921e+000 0 0 0
-3.042065e-002 -2.113654e-002 -1.066646e+000 0 0 0
-3.894319e-002 -3.061806e-002 -1.081524e+000 0 0 0
-7.365486e-002 -5.980095e-002 -1.102401e+000 0 0 0
-9.633932e-002 -8.052955e-002 -1.100474e+000 0 0 0
-1.148924e-001 -1.014298e-001 -1.093427e+000 0 0 0
-1.321447e-001 -1.201102e-001 -1.077514e+000 0 0 0
-1.470240e-001 -1.305581e-001 -1.061409e+000 0 0 0
-1.986123e-001 -8.089897e-002 -9.885254e-001 0 0 0
-1.921325e-001 -8.038149e-002 -9.852504e-001 0 0 0
-1.835054e-001 -8.241822e-002 -9.836334e-001 0 0 0
-1.765425e-001 -8.433132e-002 -9.831366e-001 0 0 0
-1.652251e-001 -8.581188e-002 -9.864909e-001 0 0 0
-1.486621e-001 -8.800156e-002 -9.891815e-001 0 0 0
-1.277386e-001 -9.404885e-002 -9.894492e-001 0 0 0
-1.063383e-001 -9.795217e-002 -9.920412e-001 0 0 0
-8.510494e-002 -9.816125e-002 -9.961600e-001 0 0 0
-6.663750e-002 -9.466163e-002 -9.969994e-001 0 0 0
-5.517489e-002 -9.013212e-002 -9.999947e-001 0 0 0
-3.306192e-002 -8.839431e-002 -9.987248e-001 0 0 0
-2.472021e-002 -8.958470e-002 -9.897596e-001 0 0 0
-1.727673e-002 -9.367915e-002 -9.707754e-001 0 0 0
-4.266587e-002 -1.184811e-001 -8.926587e-001 0 0 0
-6.170313e-002 -1.230233e-001 -8.880240e-001 0 0 0
-8.341992e-002 -1.216578e-001 -8.850318e-001 0 0 0
-1.066284e-001 -1.147077e-001 -8.851629e-001 0 0 0
-1.278226e-001 -1.039395e-001 -8.900277e-001 0 0 0
-1.525853e-001 -8.535542e-002 -8.938284e-001 0 0 0
-1.718695e-001 -5.815939e-002 -9.018394e-001 0 0 0
-1.813631e-001 -2.824295e-002 -9.111365e-001 0 0 0
-1.844232e-001 -8.613519e-004 -9.236565e-001 0 0 0
-1.797670e-001 2.138734e-002 -9.346680e-001 0 0 0
-1.666038e-001 3.339792e-002 -9.436762e-001 0 0 0
-1.451596e-001 3.906464e-002 -9.513244e-001 0 0 0
-1.194165e-001 4.285288e-002 -9.603726e-001 0 0 0
-8.712160e-002 4.928843e-002 -9.687555e-001 0 0 0
-1.125882e-001 3.532960e-002 -8.804351e-001 0 0 0
-1.384564e-001 3.962743e-002 -8.735599e-001 0 0 0
-1.655084e-001 4.416427e-002 -8.694161e-001 0 0 0
-2.008011e-001 4.747471e-002 -8.641920e-001 0 0 0
-2.206817e-001 4.947189e-002 -8.627513e-001 0 0 0
-2.421914e-001 5.226265e-002 -8.661166e-001 0 0 0
-2.563936e-001 4.920815e-002 -8.719122e-001 0 0 0
-2.638148e-001 3.836988e-002 -8.831271e-001 0 0 0
-2.673569e-001 2.241676e-002 -9.000645e-001 0 0 0
-2.663978e-001 5.833657e-003 -9.185857e-001 0 0 0
-2.596209e-001 -1.755572e-002 -9.420399e-001 0 0 0
-2.478090e-001 -3.855001e-002 -9.658601e-001 0 0 0
-2.343607e-001 -6.258790e-002 -9.920609e-001 0 0 0
-2.209576e-001 -8.121317e-002 -1.014468e+000 0 0 0
-2.018074e-001 -9.981856e-002 -1.040651e+000 0 0 0
-1.792959e-001 -1.153312e-001 -1.065645e+000 0 0 0
-1.555982e-001 -1.287186e-001 -1.089069e+000 0 0 0
-1.011058e-001 -1.550233e-001 -1.130258e+000 0 0 0
-5.755906e-002 -1.786891e-001 -1.159177e+000 0 0 0
-1.730352e-002 -1.996619e-001 -1.172109e+000 0 0 0
-9.354248e-003 -2.142745e-001 -1.175021e+000 0 0 0
-6.785088e-003 -2.333551e-001 -1.172118e+000 0 0 0
-8.193354e-003 -2.511964e-001 -1.168506e+000 0 0 0
-1.038146e-002 -2.606486e-001 -1.172265e+000 0 0 0
-1.491965e-002 -2.595335e-001 -1.181835e+000 0 0 0
-2.208578e-002 -2.467596e-001 -1.192697e+000 0 0 0
-2.787479e-002 -2.300147e-001 -1.203468e+000 0 0 0
-2.970800e-002 -2.132542e-001 -1.211873e+000 0 0 0
-3.096518e-002 -1.936715e-001 -1.214126e+000 0 0 0
-3.052225e-002 -1.675560e-001 -1.206928e+000 0 0 0
4.277451e-002 -1.098565e-002 -8.862928e-002 0 255 0
4.091958e-002 -1.011217e-002 -1.385872e-001 255 255 0
-9.952225e-001 -1.137294e-001 -3.500119e-001 255 0 0
-9.522937e-001 -1.050405e-001 -3.741286e-001 255 255 0
