ply
format ascii 1.0
element face 0
property list uchar int vertex_indices
element vertex 118
property float x
property float y
property float z
property uchar diffuse_red
property uchar diffuse_green
property uchar diffuse_blue
end_header
-2.717504e-003 -1.847795e-001 -1.088190e+000 0 0 0
-2.571024e-003 -1.807237e-001 -1.090168e+000 0 0 0
-2.982635e-003 -1.805270e-001 -1.091113e+000 0 0 0
-1.901229e-003 -1.810280e-001 -1.091897e+000 0 0 0
1.097442e-004 -1.819436e-001 -1.093131e+000 0 0 0
6.389261e-004 -1.826761e-001 -1.093673e+000 0 0 0
9.480679e-004 -1.830591e-001 -1.093908e+000 0 0 0
1.397744e-003 -1.834496e-001 -1.093918e+000 0 0 0
1.903068e-003 -1.833433e-001 -1.094216e+000 0 0 0
1.656894e-003 -1.828652e-001 -1.095616e+000 0 0 0
8.133037e-004 -1.824110e-001 -1.095214e+000 0 0 0
7.538933e-004 -1.823094e-001 -1.093407e+000 0 0 0
8.907796e-004 -1.814845e-001 -1.091476e+000 0 0 0
6.291553e-004 -1.807992e-001 -1.090321e+000 0 0 0
-5.036791e-004 -1.760951e-001 -1.091865e+000 0 0 0
-4.205739e-004 -1.675891e-001 -1.102999e+000 0 0 0
-1.303850e-003 -1.570717e-001 -1.119556e+000 0 0 0
-4.072679e-005 -1.509997e-001 -1.137287e+000 0 0 0
2.665864e-003 -1.451968e-001 -1.154861e+000 0 0 0
7.271299e-003 -1.399675e-001 -1.172715e+000 0 0 0
1.637128e-002 -1.346509e-001 -1.193815e+000 0 0 0
2.356316e-002 -1.306230e-001 -1.217609e+000 0 0 0
2.984018e-002 -1.326648e-001 -1.239163e+000 0 0 0
2.981567e-002 -1.369642e-001 -1.254867e+000 0 0 0
2.584131e-002 -1.418942e-001 -1.266351e+000 0 0 0
1.359358e-002 -1.476403e-001 -1.276687e+000 0 0 0
-8.297130e-003 -1.492453e-001 -1.282038e+000 0 0 0
-3.105459e-002 -1.472315e-001 -1.284517e+000 0 0 0
-5.670376e-002 -1.429429e-001 -1.282913e+000 0 0 0
-7.999202e-002 -1.360763e-001 -1.277567e+000 0 0 0
-9.834759e-002 -1.268732e-001 -1.270148e+000 0 0 0
-1.140437e-001 -1.140305e-001 -1.260055e+000 0 0 0
-1.265097e-001 -1.022238e-001 -1.249423e+000 0 0 0
-1.390951e-001 -8.720713e-002 -1.234110e+000 0 0 0
-1.490028e-001 -7.388810e-002 -1.217062e+000 0 0 0
-1.560305e-001 -5.932777e-002 -1.198022e+000 0 0 0
-1.624846e-001 -4.645591e-002 -1.176201e+000 0 0 0
-1.662662e-001 -3.108810e-002 -1.148782e+000 0 0 0
-1.666894e-001 -1.710008e-002 -1.125727e+000 0 0 0
-1.643670e-001 -3.741849e-003 -1.103784e+000 0 0 0
-1.578396e-001 1.094326e-002 -1.080054e+000 0 0 0
-1.464513e-001 2.227075e-002 -1.060039e+000 0 0 0
-1.293121e-001 3.166447e-002 -1.038566e+000 0 0 0
-4.810259e-002 6.110355e-003 -1.028433e+000 0 0 0
-4.045251e-002 -7.745980e-003 -1.044968e+000 0 0 0
-3.850068e-002 -1.891530e-002 -1.063860e+000 0 0 0
-4.408239e-002 -2.813712e-002 -1.078357e+000 0 0 0
-7.528011e-002 -5.697090e-002 -1.101522e+000 0 0 0
-9.616418e-002 -7.691510e-002 -1.100019e+000 0 0 0
-1.193674e-001 -9.704361e-002 -1.083475e+000 0 0 0
-1.374215e-001 -1.133385e-001 -1.062082e+000 0 0 0
-1.522818e-001 -1.210164e-001 -1.043540e+000 0 0 0
-2.033813e-001 -6.834173e-002 -9.631322e-001 0 0 0
-1.978357e-001 -6.782057e-002 -9.608243e-001 0 0 0
-1.902919e-001 -6.977289e-002 -9.595408e-001 0 0 0
-1.842203e-001 -7.172207e-002 -9.592551e-001 0 0 0
-1.740595e-001 -7.375551e-002 -9.625425e-001 0 0 0
-1.588668e-001 -7.628964e-002 -9.670540e-001 0 0 0
-1.398171e-001 -8.262128e-002 -9.681518e-001 0 0 0
-1.198011e-001 -8.703471e-002 -9.718799e-001 0 0 0
-9.973057e-002 -8.855250e-002 -9.779961e-001 0 0 0
-8.247099e-002 -8.589979e-002 -9.802556e-001 0 0 0
-7.072240e-002 -8.187323e-002 -9.843389e-001 0 0 0
-4.960642e-002 -8.107550e-002 -9.834908e-001 0 0 0
-4.308279e-002 -8.200641e-002 -9.737626e-001 0 0 0
-3.725528e-002 -8.473440e-002 -9.569102e-001 0 0 0
-7.123136e-002 -1.026345e-001 -8.706029e-001 0 0 0
-8.878458e-002 -1.055271e-001 -8.649427e-001 0 0 0
-1.094011e-001 -1.030625e-001 -8.616242e-001 0 0 0
-1.292306e-001 -9.600052e-002 -8.617427e-001 0 0 0
-1.475180e-001 -8.596528e-002 -8.653295e-001 0 0 0
-1.686834e-001 -6.846263e-002 -8.705653e-001 0 0 0
-1.849450e-001 -4.431739e-002 -8.774524e-001 0 0 0
-1.922335e-001 -1.727592e-002 -8.888782e-001 0 0 0
-1.941537e-001 6.758882e-003 -9.011344e-001 0 0 0
-1.895756e-001 2.651709e-002 -9.133286e-001 0 0 0
-1.768325e-001 3.782134e-002 -9.247511e-001 0 0 0
-1.566078e-001 4.329047e-002 -9.343670e-001 0 0 0
-1.324732e-001 4.657607e-002 -9.442806e-001 0 0 0
-1.044138e-001 5.157946e-002 -9.536504e-001 0 0 0
-1.333075e-001 4.017953e-002 -8.620590e-001 0 0 0
-1.567031e-001 4.434579e-002 -8.554087e-001 0 0 0
-1.806420e-001 4.809346e-002 -8.503869e-001 0 0 0
-2.109846e-001 5.136465e-002 -8.445525e-001 0 0 0
-2.279259e-001 5.294971e-002 -8.430692e-001 0 0 0
-2.456189e-001 5.545016e-002 -8.459723e-001 0 0 0
-2.570862e-001 5.290672e-002 -8.515125e-001 0 0 0
-2.632146e-001 4.306509e-002 -8.615641e-001 0 0 0
-2.652523e-001 2.889906e-002 -8.763482e-001 0 0 0
-2.641692e-001 1.373869e-002 -8.940586e-001 0 0 0
-2.576317e-001 -7.674036e-003 -9.169105e-001 0 0 0
-2.469100e-001 -2.764732e-002 -9.404567e-001 0 0 0
-2.340990e-001 -5.052312e-002 -9.661823e-001 0 0 0
-2.219645e-001 -6.945611e-002 -9.896232e-001 0 0 0
-2.034238e-001 -8.838146e-002 -1.017465e+000 0 0 0
-1.819020e-001 -1.055320e-001 -1.045928e+000 0 0 0
-1.589740e-001 -1.206629e-001 -1.071407e+000 0 0 0
-1.034216e-001 -1.521259e-001 -1.124035e+000 0 0 0
-5.446825e-002 -1.818392e-001 -1.164631e+000 0 0 0
-1.410040e-002 -2.060790e-001 -1.183377e+000 0 0 0
-5.323172e-003 -2.222996e-001 -1.186137e+000 0 0 0
-3.409397e-003 -2.412146e-001 -1.181683e+000 0 0 0
-5.303860e-003 -2.589940e-001 -1.176671e+000 0 0 0
-7.246151e-003 -2.690844e-001 -1.179841e+000 0 0 0
-1.088879e-002 -2.684409e-001 -1.190180e+000 0 0 0
-1.623479e-002 -2.565420e-001 -1.205085e+000 0 0 0
-2.076653e-002 -2.407805e-001 -1.219356e+000 0 0 0
-2.279525e-002 -2.242449e-001 -1.228263e+000 0 0 0
-2.264837e-002 -2.051416e-001 -1.234288e+000 0 0 0
-2.256428e-002 -1.778684e-001 -1.228914e+000 0 0 0
-7.412654e-002 1.362178e-002 -2.400152e-001 0 255 0
-6.971405e-002 1.327737e-002 -2.898189e-001 255 255 0
-7.114365e-001 -4.908511e-002 -4.736691e-001 255 0 0
-6.695233e-001 -4.060838e-002 -4.995812e-001 255 255 0
5.508601e-001 -6.508137e-001 -1.304971e+000 0 255 0
5.205570e-001 -6.122903e-001 -1.295089e+000 255 255 0
-1.822512e-001 -6.805166e-001 -1.496223e+000 255 0 0
-1.746631e-001 -6.389668e-001 -1.469464e+000 255 255 0
