ply
format ascii 1.0
element face 0
property list uchar int vertex_indices
element vertex 71
property float x
property float y
property float z
property uchar diffuse_red
property uchar diffuse_green
property uchar diffuse_blue
end_header
9.679475e-002 6.678917e-002 -8.438550e-001 0 0 0
1.007963e-001 8.077522e-002 -8.471859e-001 0 0 0
1.023708e-001 8.982617e-002 -8.526779e-001 0 0 0
1.035979e-001 9.491493e-002 -8.614790e-001 0 0 0
1.011865e-001 9.711680e-002 -8.708969e-001 0 0 0
9.876626e-002 9.786888e-002 -8.817948e-001 0 0 0
9.511232e-002 9.660668e-002 -8.911764e-001 0 0 0
9.207501e-002 9.081500e-002 -9.017914e-001 0 0 0
8.953713e-002 6.307475e-002 -9.273051e-001 0 0 0
9.430533e-002 5.863257e-002 -9.302429e-001 0 0 0
1.073553e-001 6.132999e-002 -9.324179e-001 0 0 0
1.184131e-001 6.861001e-002 -9.335718e-001 0 0 0
1.291936e-001 8.045772e-002 -9.334766e-001 0 0 0
1.352962e-001 9.279967e-002 -9.337145e-001 0 0 0
1.407307e-001 1.050489e-001 -9.352961e-001 0 0 0
1.292195e-001 1.136689e-001 -9.309379e-001 0 0 0
1.212338e-001 1.197774e-001 -9.281460e-001 0 0 0
1.107648e-001 1.231743e-001 -9.223062e-001 0 0 0
1.013545e-001 1.237455e-001 -9.156406e-001 0 0 0
9.148925e-002 1.208983e-001 -9.089764e-001 0 0 0
8.149468e-002 1.159543e-001 -9.028875e-001 0 0 0
7.288178e-002 1.082892e-001 -8.944205e-001 0 0 0
6.436003e-002 9.851176e-002 -8.852017e-001 0 0 0
5.777438e-002 8.501951e-002 -8.749050e-001 0 0 0
5.288364e-002 6.653387e-002 -8.620900e-001 0 0 0
5.070652e-002 4.855322e-002 -8.505095e-001 0 0 0
5.003922e-002 2.841211e-002 -8.375715e-001 0 0 0
5.164173e-002 1.570127e-002 -8.262742e-001 0 0 0
5.385748e-002 5.927077e-003 -8.117112e-001 0 0 0
5.541855e-002 2.382039e-003 -7.997940e-001 0 0 0
5.487197e-002 4.740686e-003 -7.893039e-001 0 0 0
5.344626e-002 1.150318e-002 -7.814370e-001 0 0 0
5.209546e-002 2.166900e-002 -7.764950e-001 0 0 0
5.033564e-002 3.494177e-002 -7.762272e-001 0 0 0
4.754811e-002 4.814456e-002 -7.813940e-001 0 0 0
4.831359e-002 6.917743e-002 -7.881419e-001 0 0 0
5.302132e-002 9.193210e-002 -7.966117e-001 0 0 0
6.491917e-002 1.148818e-001 -8.056768e-001 0 0 0
7.898910e-002 1.290430e-001 -8.154529e-001 0 0 0
9.421572e-002 1.373649e-001 -8.291023e-001 0 0 0
1.109692e-001 1.382848e-001 -8.409252e-001 0 0 0
1.217331e-001 1.358162e-001 -8.489368e-001 0 0 0
1.318948e-001 1.306360e-001 -8.546865e-001 0 0 0
1.389415e-001 1.236156e-001 -8.578827e-001 0 0 0
1.441178e-001 1.146638e-001 -8.595362e-001 0 0 0
1.485310e-001 1.062614e-001 -8.596860e-001 0 0 0
1.542906e-001 9.616959e-002 -8.553009e-001 0 0 0
1.538156e-001 8.797078e-002 -8.479652e-001 0 0 0
1.467390e-001 7.997906e-002 -8.365338e-001 0 0 0
1.359328e-001 7.114088e-002 -8.277909e-001 0 0 0
1.241204e-001 5.779436e-002 -8.186448e-001 0 0 0
1.119930e-001 3.894673e-002 -8.092058e-001 0 0 0
1.065123e-001 1.789490e-002 -7.979242e-001 0 0 0
1.023636e-001 -1.268440e-003 -7.897074e-001 0 0 0
1.015611e-001 -1.629292e-002 -7.838144e-001 0 0 0
9.881133e-002 -2.516905e-002 -7.784606e-001 0 0 0
9.368419e-002 -2.398345e-002 -7.748312e-001 0 0 0
8.866049e-002 -1.176293e-002 -7.735036e-001 0 0 0
8.042933e-002 8.359919e-003 -7.802847e-001 0 0 0
7.668500e-002 2.341523e-002 -7.878362e-001 0 0 0
7.705202e-002 3.817602e-002 -7.998685e-001 0 0 0
8.000987e-002 4.615251e-002 -8.134982e-001 0 0 0
8.472570e-002 4.978870e-002 -8.311005e-001 0 0 0
9.119124e-002 4.964176e-002 -8.421479e-001 0 0 0
9.857920e-002 4.954963e-002 -8.490183e-001 0 0 0
1.026213e-001 5.037241e-002 -8.532457e-001 0 0 0
1.052361e-001 5.353952e-002 -8.541210e-001 0 0 0
-4.690444e-002 1.084575e-002 -1.615628e-002 0 255 0
-4.407438e-002 1.019654e-002 -6.607190e-002 255 255 0
-7.501643e-001 2.435732e-001 -5.416562e-001 255 0 0
-7.077788e-001 2.314292e-001 -5.652358e-001 255 255 0
