ply
format ascii 1.0
element face 0
property list uchar int vertex_indices
element vertex 77
property float x
property float y
property float z
property uchar diffuse_red
property uchar diffuse_green
property uchar diffuse_blue
end_header
8.833464e-002 6.196470e-002 -8.353404e-001 0 0 0
9.229278e-002 7.546462e-002 -8.388136e-001 0 0 0
9.478929e-002 8.432376e-002 -8.450215e-001 0 0 0
9.701773e-002 8.982121e-002 -8.541678e-001 0 0 0
9.648810e-002 9.204888e-002 -8.644908e-001 0 0 0
9.529274e-002 9.313515e-002 -8.765641e-001 0 0 0
9.267115e-002 9.163243e-002 -8.869555e-001 0 0 0
9.213230e-002 8.638145e-002 -8.994872e-001 0 0 0
9.547140e-002 5.899395e-002 -9.312365e-001 0 0 0
1.022495e-001 5.485985e-002 -9.369236e-001 0 0 0
1.161207e-001 5.827644e-002 -9.418877e-001 0 0 0
1.285777e-001 6.648601e-002 -9.458363e-001 0 0 0
1.400442e-001 7.939025e-002 -9.470288e-001 0 0 0
1.461346e-001 9.265353e-002 -9.476894e-001 0 0 0
1.462745e-001 1.060618e-001 -9.455549e-001 0 0 0
1.380983e-001 1.139032e-001 -9.417494e-001 0 0 0
1.277455e-001 1.193811e-001 -9.356029e-001 0 0 0
1.150587e-001 1.213466e-001 -9.267050e-001 0 0 0
1.027818e-001 1.206124e-001 -9.154511e-001 0 0 0
9.137787e-002 1.165377e-001 -9.065092e-001 0 0 0
8.164201e-002 1.104435e-001 -8.980823e-001 0 0 0
7.002213e-002 1.018318e-001 -8.869868e-001 0 0 0
6.032262e-002 9.108238e-002 -8.747989e-001 0 0 0
5.240697e-002 7.696430e-002 -8.625199e-001 0 0 0
4.647452e-002 5.928435e-002 -8.493187e-001 0 0 0
4.351432e-002 4.172673e-002 -8.372274e-001 0 0 0
4.205001e-002 2.263382e-002 -8.239515e-001 0 0 0
4.283312e-002 1.079330e-002 -8.128237e-001 0 0 0
4.358116e-002 1.855736e-003 -7.982499e-001 0 0 0
4.324824e-002 -1.100901e-003 -7.851990e-001 0 0 0
4.137733e-002 1.157131e-003 -7.748004e-001 0 0 0
3.840663e-002 7.735556e-003 -7.659347e-001 0 0 0
3.634898e-002 1.687745e-002 -7.609702e-001 0 0 0
3.396755e-002 2.896275e-002 -7.600280e-001 0 0 0
3.129423e-002 4.084480e-002 -7.641958e-001 0 0 0
3.185395e-002 6.012329e-002 -7.702382e-001 0 0 0
3.676130e-002 8.154963e-002 -7.781262e-001 0 0 0
4.821355e-002 1.035903e-001 -7.881735e-001 0 0 0
6.184028e-002 1.183684e-001 -7.994007e-001 0 0 0
7.950467e-002 1.282143e-001 -8.150018e-001 0 0 0
9.734712e-002 1.312628e-001 -8.298097e-001 0 0 0
1.108623e-001 1.307831e-001 -8.401541e-001 0 0 0
1.236788e-001 1.267796e-001 -8.492828e-001 0 0 0
1.324265e-001 1.203498e-001 -8.544408e-001 0 0 0
1.389683e-001 1.125641e-001 -8.578119e-001 0 0 0
1.447598e-001 1.039831e-001 -8.590266e-001 0 0 0
1.503730e-001 9.490174e-002 -8.559029e-001 0 0 0
1.481854e-001 8.622705e-002 -8.464795e-001 0 0 0
1.406631e-001 7.802095e-002 -8.356805e-001 0 0 0
1.270562e-001 6.832116e-002 -8.226308e-001 0 0 0
1.132588e-001 5.449532e-002 -8.123218e-001 0 0 0
9.941806e-002 3.559724e-002 -8.002466e-001 0 0 0
9.330899e-002 1.535381e-002 -7.895609e-001 0 0 0
8.956268e-002 -3.053420e-003 -7.815584e-001 0 0 0
8.812768e-002 -1.707084e-002 -7.748723e-001 0 0 0
8.458773e-002 -2.507044e-002 -7.693207e-001 0 0 0
7.946154e-002 -2.417072e-002 -7.652232e-001 0 0 0
7.285880e-002 -1.255226e-002 -7.624482e-001 0 0 0
6.483760e-002 5.709991e-003 -7.678434e-001 0 0 0
6.133570e-002 1.952369e-002 -7.744645e-001 0 0 0
6.279351e-002 3.299457e-002 -7.858293e-001 0 0 0
6.790159e-002 4.086846e-002 -8.021464e-001 0 0 0
7.459223e-002 4.466573e-002 -8.196941e-001 0 0 0
8.374540e-002 4.490807e-002 -8.337545e-001 0 0 0
9.196312e-002 4.529961e-002 -8.419807e-001 0 0 0
9.658914e-002 4.642660e-002 -8.471305e-001 0 0 0
9.976033e-002 4.957224e-002 -8.487666e-001 0 0 0
9.367224e-002 7.824014e-002 -9.119046e-001 0 0 0
9.434013e-002 6.823682e-002 -9.227970e-001 0 0 0
-1.019624e-001 9.761359e-003 -2.100055e-001 0 255 0
-9.416147e-002 8.515832e-003 -2.593775e-001 255 255 0
-5.097930e-001 1.341911e-001 -5.361184e-001 255 0 0
-4.715175e-001 1.256377e-001 -5.671317e-001 255 255 0
5.696678e-001 4.454898e-001 -8.929893e-001 0 255 0
5.345625e-001 4.100829e-001 -8.892520e-001 255 255 0
1.015961e-001 5.281341e-001 -1.160044e+000 255 0 0
9.532264e-002 4.856224e-001 -1.134482e+000 255 255 0
