ply
format ascii 1.0
element face 0
property list uchar int vertex_indices
element vertex 153
property float x
property float y
property float z
property uchar diffuse_red
property uchar diffuse_green
property uchar diffuse_blue
end_header
-1.609243e-001 -3.600233e-002 -6.652289e-001 0 0 0
-1.588723e-001 -3.658084e-002 -6.580549e-001 0 0 0
-1.561059e-001 -3.702323e-002 -6.556573e-001 0 0 0
-1.508749e-001 -3.778416e-002 -6.548799e-001 0 0 0
-1.423654e-001 -3.882706e-002 -6.532440e-001 0 0 0
-1.335215e-001 -4.017844e-002 -6.527879e-001 0 0 0
-1.279118e-001 -4.090906e-002 -6.529233e-001 0 0 0
-1.207976e-001 -4.205715e-002 -6.540786e-001 0 0 0
-1.153470e-001 -4.181807e-002 -6.561671e-001 0 0 0
-1.109774e-001 -3.738975e-002 -6.583553e-001 0 0 0
-1.079655e-001 -3.043824e-002 -6.633301e-001 0 0 0
-1.062557e-001 -1.207651e-002 -6.981996e-001 0 0 0
-1.396824e-001 -3.444994e-002 -7.672020e-001 0 0 0
-1.437750e-001 -3.934103e-002 -7.732801e-001 0 0 0
-1.457216e-001 -4.581893e-002 -7.779681e-001 0 0 0
-1.461052e-001 -5.475300e-002 -7.855745e-001 0 0 0
-1.461946e-001 -6.296824e-002 -7.937778e-001 0 0 0
-1.447143e-001 -6.945827e-002 -8.002697e-001 0 0 0
-1.423564e-001 -7.753624e-002 -8.092779e-001 0 0 0
-1.385113e-001 -8.358591e-002 -8.173173e-001 0 0 0
-1.329813e-001 -8.805076e-002 -8.221548e-001 0 0 0
-1.279790e-001 -9.226181e-002 -8.286987e-001 0 0 0
-1.246600e-001 -9.336902e-002 -8.348483e-001 0 0 0
-1.179267e-001 -9.344635e-002 -8.405184e-001 0 0 0
-1.093609e-001 -9.337068e-002 -8.445370e-001 0 0 0
-9.879457e-002 -9.078949e-002 -8.539423e-001 0 0 0
-4.016689e-002 -1.003862e-001 -8.735231e-001 0 0 0
-1.151345e-001 -1.179572e-001 -8.510476e-001 0 0 0
-1.280509e-001 -1.183759e-001 -8.510842e-001 0 0 0
-1.367539e-001 -1.169626e-001 -8.520678e-001 0 0 0
-1.456591e-001 -1.129552e-001 -8.547989e-001 0 0 0
-1.515344e-001 -1.087194e-001 -8.590699e-001 0 0 0
-1.560382e-001 -1.035786e-001 -8.648487e-001 0 0 0
-1.590166e-001 -9.985856e-002 -8.712340e-001 0 0 0
-1.631677e-001 -9.561493e-002 -8.775049e-001 0 0 0
-1.622442e-001 -9.031905e-002 -8.850801e-001 0 0 0
-1.635687e-001 -8.744519e-002 -8.923829e-001 0 0 0
-1.607590e-001 -8.618927e-002 -9.072272e-001 0 0 0
-1.577085e-001 -9.015114e-002 -9.143849e-001 0 0 0
-1.585064e-001 -9.765568e-002 -9.197643e-001 0 0 0
-1.620548e-001 -1.089589e-001 -9.205703e-001 0 0 0
-1.705269e-001 -1.232103e-001 -9.190641e-001 0 0 0
-1.776056e-001 -1.342002e-001 -9.137785e-001 0 0 0
-1.871379e-001 -1.426012e-001 -9.076719e-001 0 0 0
-1.970108e-001 -1.462218e-001 -9.042710e-001 0 0 0
-2.039207e-001 -1.466690e-001 -8.946796e-001 0 0 0
-2.138816e-001 -1.450314e-001 -8.859419e-001 0 0 0
-2.237660e-001 -1.402404e-001 -8.796674e-001 0 0 0
-2.265578e-001 -1.307549e-001 -8.679385e-001 0 0 0
-2.276045e-001 -1.194637e-001 -8.624289e-001 0 0 0
-2.214323e-001 -1.063742e-001 -8.561925e-001 0 0 0
-2.146486e-001 -9.538734e-002 -8.552034e-001 0 0 0
-1.998376e-001 -8.242366e-002 -8.577926e-001 0 0 0
-1.835885e-001 -7.387673e-002 -8.605062e-001 0 0 0
-1.750015e-001 -6.745207e-002 -8.662751e-001 0 0 0
-1.521384e-001 -6.110216e-002 -8.641073e-001 0 0 0
-1.354672e-001 -5.895087e-002 -8.589689e-001 0 0 0
1.143408e-001 1.582486e-002 -6.784374e-001 0 0 0
1.211565e-001 8.700075e-003 -6.785601e-001 0 0 0
1.275232e-001 1.000869e-002 -6.757970e-001 0 0 0
1.315694e-001 1.448398e-002 -6.763278e-001 0 0 0
1.311388e-001 1.894667e-002 -6.743137e-001 0 0 0
1.273830e-001 1.944728e-002 -6.749059e-001 0 0 0
1.201625e-001 2.032375e-002 -6.718816e-001 0 0 0
1.114263e-001 1.972639e-002 -6.669981e-001 0 0 0
9.630085e-002 2.209265e-002 -6.632775e-001 0 0 0
8.127902e-002 2.635608e-002 -6.588993e-001 0 0 0
6.929732e-002 2.899415e-002 -6.533473e-001 0 0 0
5.448854e-002 3.114877e-002 -6.531789e-001 0 0 0
4.213615e-002 2.320252e-002 -6.523155e-001 0 0 0
3.495093e-002 1.276826e-002 -6.366543e-001 0 0 0
3.490612e-002 2.124860e-003 -6.239911e-001 0 0 0
3.744694e-002 -6.815180e-004 -6.186622e-001 0 0 0
3.744424e-002 3.531762e-003 -6.216960e-001 0 0 0
2.725607e-002 7.020468e-003 -6.316124e-001 0 0 0
1.138716e-001 2.266530e-002 -7.294845e-001 0 0 0
1.331341e-001 2.593480e-002 -7.405939e-001 0 0 0
1.586514e-001 1.742613e-002 -7.413544e-001 0 0 0
1.710825e-001 2.532363e-003 -7.375879e-001 0 0 0
1.851346e-001 -2.546755e-002 -7.283597e-001 0 0 0
1.904470e-001 -5.199115e-002 -7.153846e-001 0 0 0
1.856469e-001 -6.738027e-002 -7.059157e-001 0 0 0
1.762141e-001 -8.303620e-002 -6.952015e-001 0 0 0
1.642500e-001 -9.328594e-002 -6.865591e-001 0 0 0
1.447495e-001 -9.950215e-002 -6.814294e-001 0 0 0
1.259506e-001 -1.056643e-001 -6.785242e-001 0 0 0
9.890229e-002 -1.172040e-001 -6.804997e-001 0 0 0
6.967158e-002 -1.283829e-001 -6.886228e-001 0 0 0
5.043372e-002 -1.369981e-001 -6.969865e-001 0 0 0
3.216064e-002 -1.436659e-001 -7.053439e-001 0 0 0
-3.743894e-003 -1.464919e-001 -7.204174e-001 0 0 0
-2.343255e-002 -1.433447e-001 -7.359984e-001 0 0 0
-4.724834e-002 -1.318933e-001 -7.513815e-001 0 0 0
-2.576499e-002 -1.348632e-001 -8.398958e-001 0 0 0
-1.117762e-002 -1.381150e-001 -8.555156e-001 0 0 0
4.082354e-003 -1.356898e-001 -8.619866e-001 0 0 0
1.080511e-002 -1.283446e-001 -8.656956e-001 0 0 0
4.829446e-003 -1.204684e-001 -8.632482e-001 0 0 0
-1.532612e-002 -1.130256e-001 -8.602621e-001 0 0 0
-3.938246e-002 -1.074545e-001 -8.605018e-001 0 0 0
-5.648432e-002 -1.095020e-001 -8.572491e-001 0 0 0
-7.572159e-002 -1.227554e-001 -8.593393e-001 0 0 0
-8.571165e-002 -1.468414e-001 -8.595485e-001 0 0 0
-8.970397e-002 -1.737178e-001 -8.548113e-001 0 0 0
-9.014134e-002 -1.965180e-001 -8.462730e-001 0 0 0
-8.993436e-002 -2.069503e-001 -8.400758e-001 0 0 0
-8.697410e-002 -2.112906e-001 -8.399779e-001 0 0 0
-8.018260e-002 -2.137961e-001 -8.443519e-001 0 0 0
-7.325360e-002 -2.146728e-001 -8.499267e-001 0 0 0
-6.426093e-002 -2.141929e-001 -8.560403e-001 0 0 0
-5.507199e-002 -2.118740e-001 -8.615911e-001 0 0 0
-4.945586e-002 -2.080448e-001 -8.653286e-001 0 0 0
-4.461514e-002 -2.004058e-001 -8.698389e-001 0 0 0
-4.000695e-002 -1.898844e-001 -8.761245e-001 0 0 0
-3.632774e-002 -1.757203e-001 -8.827199e-001 0 0 0
-3.539556e-002 -1.637920e-001 -8.864102e-001 0 0 0
-4.755881e-002 -1.165761e-001 -9.224661e-001 0 0 0
-5.104658e-002 -1.034133e-001 -9.283990e-001 0 0 0
-5.521204e-002 -9.387907e-002 -9.310195e-001 0 0 0
-6.206349e-002 -8.148053e-002 -9.299666e-001 0 0 0
-6.930610e-002 -7.460139e-002 -9.227519e-001 0 0 0
-7.920242e-002 -6.876202e-002 -9.165342e-001 0 0 0
-8.475290e-002 -6.662535e-002 -9.109092e-001 0 0 0
-8.654020e-002 -7.039910e-002 -9.002522e-001 0 0 0
-9.199270e-002 -8.213797e-002 -8.860973e-001 0 0 0
-9.601283e-002 -9.117861e-002 -8.756979e-001 0 0 0
-1.003468e-001 -9.944451e-002 -8.651890e-001 0 0 0
-1.040847e-001 -1.045532e-001 -8.612903e-001 0 0 0
-1.085297e-001 -1.064437e-001 -8.603618e-001 0 0 0
-1.118551e-001 -1.051297e-001 -8.605927e-001 0 0 0
-1.111033e-001 -1.019313e-001 -8.621204e-001 0 0 0
-1.068946e-001 -9.745136e-002 -8.634838e-001 0 0 0
-1.042656e-001 -9.208572e-002 -8.647230e-001 0 0 0
-1.047085e-001 -8.634548e-002 -8.648020e-001 0 0 0
-1.059881e-001 -7.952223e-002 -8.622996e-001 0 0 0
-1.050262e-001 -7.558880e-002 -8.605076e-001 0 0 0
-1.040100e-001 -7.327896e-002 -8.598804e-001 0 0 0
-1.029127e-001 -7.288144e-002 -8.587850e-001 0 0 0
-1.028134e-001 -7.267657e-002 -8.583799e-001 0 0 0
-1.023498e-001 -7.208310e-002 -8.588975e-001 0 0 0
-1.026223e-001 -7.222186e-002 -8.603266e-001 0 0 0
-1.049686e-001 -7.245025e-002 -8.629292e-001 0 0 0
-1.096149e-001 -7.124552e-002 -8.673781e-001 0 0 0
-1.157380e-001 -6.784031e-002 -8.746111e-001 0 0 0
-1.254271e-001 -7.015782e-002 -8.783281e-001 0 0 0
-1.328807e-001 -7.367204e-002 -8.786610e-001 0 0 0
-1.426317e-001 -7.834584e-002 -8.753919e-001 0 0 0
-1.507841e-001 -8.249451e-002 -8.685617e-001 0 0 0
-1.564368e-001 -8.611010e-002 -8.643425e-001 0 0 0
1.861049e-002 -2.615545e-003 8.022730e-003 0 255 0
1.746845e-002 -2.482603e-003 -4.196405e-002 255 255 0
7.308480e-001 -2.499622e-001 -5.915442e-001 255 0 0
6.874294e-001 -2.368611e-001 -6.125960e-001 255 255 0
