ply
format ascii 1.0
element face 0
property list uchar int vertex_indices
element vertex 157
property float x
property float y
property float z
property uchar diffuse_red
property uchar diffuse_green
property uchar diffuse_blue
end_header
-1.123584e-001 -3.564374e-002 -6.648302e-001 0 0 0
-1.081565e-001 -3.594194e-002 -6.582807e-001 0 0 0
-1.046230e-001 -3.615404e-002 -6.560351e-001 0 0 0
-9.904900e-002 -3.654365e-002 -6.551508e-001 0 0 0
-9.001050e-002 -3.699656e-002 -6.534149e-001 0 0 0
-8.106629e-002 -3.771116e-002 -6.527027e-001 0 0 0
-7.557648e-002 -3.805891e-002 -6.526333e-001 0 0 0
-6.891269e-002 -3.870428e-002 -6.533878e-001 0 0 0
-6.421121e-002 -3.825965e-002 -6.550697e-001 0 0 0
-6.084543e-002 -3.429164e-002 -6.571076e-001 0 0 0
-5.958998e-002 -2.824548e-002 -6.617397e-001 0 0 0
-6.736905e-002 -1.232183e-002 -6.938292e-001 0 0 0
-1.197314e-001 -3.474250e-002 -7.615500e-001 0 0 0
-1.256586e-001 -3.967053e-002 -7.672698e-001 0 0 0
-1.296387e-001 -4.614586e-002 -7.731656e-001 0 0 0
-1.316765e-001 -5.502234e-002 -7.804152e-001 0 0 0
-1.331690e-001 -6.305538e-002 -7.876754e-001 0 0 0
-1.332379e-001 -6.944852e-002 -7.940541e-001 0 0 0
-1.326257e-001 -7.758816e-002 -8.029136e-001 0 0 0
-1.308162e-001 -8.388784e-002 -8.106892e-001 0 0 0
-1.272498e-001 -8.832220e-002 -8.171525e-001 0 0 0
-1.240336e-001 -9.247198e-002 -8.239516e-001 0 0 0
-1.206535e-001 -9.327041e-002 -8.289067e-001 0 0 0
-1.146721e-001 -9.307620e-002 -8.339697e-001 0 0 0
-1.088798e-001 -9.264226e-002 -8.391155e-001 0 0 0
-9.913180e-002 -8.935447e-002 -8.487240e-001 0 0 0
-4.038720e-002 -9.514977e-002 -8.613114e-001 0 0 0
-1.133638e-001 -1.176039e-001 -8.439201e-001 0 0 0
-1.281245e-001 -1.194412e-001 -8.459987e-001 0 0 0
-1.403136e-001 -1.196032e-001 -8.492497e-001 0 0 0
-1.516883e-001 -1.167399e-001 -8.542647e-001 0 0 0
-1.609185e-001 -1.133399e-001 -8.613613e-001 0 0 0
-1.668748e-001 -1.094737e-001 -8.676097e-001 0 0 0
-1.742284e-001 -1.061027e-001 -8.768366e-001 0 0 0
-1.812144e-001 -1.024382e-001 -8.864425e-001 0 0 0
-1.840262e-001 -9.755170e-002 -8.959530e-001 0 0 0
-1.899436e-001 -9.521328e-002 -9.070270e-001 0 0 0
-1.928093e-001 -9.474047e-002 -9.263468e-001 0 0 0
-1.916108e-001 -9.927070e-002 -9.349505e-001 0 0 0
-1.943255e-001 -1.079493e-001 -9.416604e-001 0 0 0
-1.982813e-001 -1.207133e-001 -9.422967e-001 0 0 0
-2.074373e-001 -1.371118e-001 -9.405180e-001 0 0 0
-2.134010e-001 -1.493497e-001 -9.335545e-001 0 0 0
-2.224836e-001 -1.590362e-001 -9.263520e-001 0 0 0
-2.320991e-001 -1.632744e-001 -9.233884e-001 0 0 0
-2.414677e-001 -1.641666e-001 -9.146180e-001 0 0 0
-2.500542e-001 -1.639905e-001 -9.058673e-001 0 0 0
-2.566593e-001 -1.576968e-001 -8.955223e-001 0 0 0
-2.595774e-001 -1.481462e-001 -8.860146e-001 0 0 0
-2.575496e-001 -1.341910e-001 -8.767983e-001 0 0 0
-2.486251e-001 -1.186011e-001 -8.697983e-001 0 0 0
-2.386834e-001 -1.063736e-001 -8.678494e-001 0 0 0
-2.220500e-001 -9.101202e-002 -8.697900e-001 0 0 0
-2.059388e-001 -8.012049e-002 -8.732653e-001 0 0 0
-1.936610e-001 -7.346398e-002 -8.758752e-001 0 0 0
-1.658092e-001 -6.490730e-002 -8.712016e-001 0 0 0
-1.477529e-001 -6.112688e-002 -8.643800e-001 0 0 0
1.252425e-001 1.667771e-002 -6.696038e-001 0 0 0
1.310758e-001 1.102219e-002 -6.689893e-001 0 0 0
1.361520e-001 1.215918e-002 -6.667471e-001 0 0 0
1.390524e-001 1.576172e-002 -6.671758e-001 0 0 0
1.386789e-001 1.924063e-002 -6.657857e-001 0 0 0
1.358150e-001 1.947475e-002 -6.663263e-001 0 0 0
1.304699e-001 1.999633e-002 -6.641890e-001 0 0 0
1.242947e-001 1.932821e-002 -6.608884e-001 0 0 0
1.130244e-001 2.060796e-002 -6.579819e-001 0 0 0
1.016717e-001 2.366507e-002 -6.551864e-001 0 0 0
9.220126e-002 2.569812e-002 -6.515237e-001 0 0 0
8.058729e-002 2.694096e-002 -6.514665e-001 0 0 0
7.126131e-002 2.029708e-002 -6.504055e-001 0 0 0
6.817148e-002 1.153731e-002 -6.382551e-001 0 0 0
7.034972e-002 2.951059e-003 -6.280289e-001 0 0 0
7.298025e-002 8.138456e-004 -6.236440e-001 0 0 0
7.236116e-002 4.194778e-003 -6.263036e-001 0 0 0
6.266864e-002 7.008370e-003 -6.348266e-001 0 0 0
1.191476e-001 2.386263e-002 -7.130448e-001 0 0 0
1.347562e-001 2.637558e-002 -7.207274e-001 0 0 0
1.545338e-001 2.025997e-002 -7.191500e-001 0 0 0
1.655910e-001 7.736431e-003 -7.139225e-001 0 0 0
1.774759e-001 -1.402770e-002 -7.040248e-001 0 0 0
1.820747e-001 -3.364720e-002 -6.927025e-001 0 0 0
1.798272e-001 -4.581654e-002 -6.842478e-001 0 0 0
1.737111e-001 -5.775005e-002 -6.754715e-001 0 0 0
1.654717e-001 -6.566519e-002 -6.690592e-001 0 0 0
1.517421e-001 -7.126090e-002 -6.654500e-001 0 0 0
1.375575e-001 -7.697553e-002 -6.631560e-001 0 0 0
1.172384e-001 -8.760249e-002 -6.649537e-001 0 0 0
9.390250e-002 -9.870449e-002 -6.718445e-001 0 0 0
7.784885e-002 -1.072918e-001 -6.784871e-001 0 0 0
6.058091e-002 -1.145420e-001 -6.862539e-001 0 0 0
2.966759e-002 -1.212865e-001 -7.003812e-001 0 0 0
8.954387e-003 -1.215909e-001 -7.148639e-001 0 0 0
-1.733523e-002 -1.152636e-001 -7.328750e-001 0 0 0
-1.697104e-002 -1.234637e-001 -8.191361e-001 0 0 0
-4.582677e-003 -1.263578e-001 -8.337268e-001 0 0 0
8.659475e-003 -1.229826e-001 -8.391468e-001 0 0 0
1.434610e-002 -1.159434e-001 -8.426856e-001 0 0 0
7.726203e-003 -1.087095e-001 -8.423566e-001 0 0 0
-1.223182e-002 -1.033294e-001 -8.425863e-001 0 0 0
-3.456142e-002 -1.009647e-001 -8.440092e-001 0 0 0
-5.257534e-002 -1.036685e-001 -8.448379e-001 0 0 0
-7.227009e-002 -1.180753e-001 -8.479974e-001 0 0 0
-8.221252e-002 -1.432955e-001 -8.477565e-001 0 0 0
-8.342306e-002 -1.692982e-001 -8.400317e-001 0 0 0
-7.996033e-002 -1.900295e-001 -8.283164e-001 0 0 0
-7.730639e-002 -1.989871e-001 -8.204306e-001 0 0 0
-7.388266e-002 -2.026364e-001 -8.195553e-001 0 0 0
-6.780620e-002 -2.046818e-001 -8.233480e-001 0 0 0
-6.202810e-002 -2.053698e-001 -8.286188e-001 0 0 0
-5.432611e-002 -2.045532e-001 -8.343710e-001 0 0 0
-4.592711e-002 -2.018894e-001 -8.389699e-001 0 0 0
-4.103154e-002 -1.977672e-001 -8.436717e-001 0 0 0
-3.793708e-002 -1.905770e-001 -8.490807e-001 0 0 0
-3.506942e-002 -1.811299e-001 -8.545792e-001 0 0 0
-3.451541e-002 -1.679457e-001 -8.645409e-001 0 0 0
-3.542067e-002 -1.564783e-001 -8.696876e-001 0 0 0
-6.251586e-002 -1.150678e-001 -9.214076e-001 0 0 0
-6.748372e-002 -1.033770e-001 -9.300384e-001 0 0 0
-7.359891e-002 -9.424212e-002 -9.352403e-001 0 0 0
-8.189183e-002 -8.203274e-002 -9.365017e-001 0 0 0
-8.834334e-002 -7.511327e-002 -9.292001e-001 0 0 0
-9.812428e-002 -6.955102e-002 -9.236583e-001 0 0 0
-1.027838e-001 -6.749910e-002 -9.176436e-001 0 0 0
-1.017970e-001 -7.088205e-002 -9.050491e-001 0 0 0
-1.021221e-001 -8.230733e-002 -8.875221e-001 0 0 0
-1.023164e-001 -9.161080e-002 -8.722783e-001 0 0 0
-1.034062e-001 -9.894147e-002 -8.611891e-001 0 0 0
-1.061746e-001 -1.043743e-001 -8.562550e-001 0 0 0
-1.103322e-001 -1.066053e-001 -8.551410e-001 0 0 0
-1.140340e-001 -1.055730e-001 -8.559498e-001 0 0 0
-1.140699e-001 -1.026527e-001 -8.579120e-001 0 0 0
-1.099139e-001 -9.796772e-002 -8.587394e-001 0 0 0
-1.085038e-001 -9.223170e-002 -8.616054e-001 0 0 0
-1.094612e-001 -8.673363e-002 -8.624261e-001 0 0 0
-1.104012e-001 -7.991757e-002 -8.601615e-001 0 0 0
-1.089260e-001 -7.558236e-002 -8.578757e-001 0 0 0
-1.072452e-001 -7.335262e-002 -8.570014e-001 0 0 0
-1.062526e-001 -7.270139e-002 -8.559207e-001 0 0 0
-1.062142e-001 -7.248383e-002 -8.557315e-001 0 0 0
-1.056454e-001 -7.194454e-002 -8.562105e-001 0 0 0
-1.064982e-001 -7.212819e-002 -8.579367e-001 0 0 0
-1.096327e-001 -7.269850e-002 -8.609580e-001 0 0 0
-1.167956e-001 -7.200976e-002 -8.674975e-001 0 0 0
-1.257504e-001 -6.953107e-002 -8.765652e-001 0 0 0
-1.390675e-001 -7.270797e-002 -8.839391e-001 0 0 0
-1.471434e-001 -7.679320e-002 -8.853243e-001 0 0 0
-1.575383e-001 -8.222275e-002 -8.828599e-001 0 0 0
-1.653464e-001 -8.680220e-002 -8.765060e-001 0 0 0
-1.690168e-001 -9.085782e-002 -8.693624e-001 0 0 0
1.198785e-001 -4.685372e-003 -2.877282e-001 0 255 0
1.091968e-001 -4.000743e-003 -3.365690e-001 255 255 0
4.795550e-001 -1.268515e-001 -5.960992e-001 255 0 0
4.393169e-001 -1.186040e-001 -6.246102e-001 255 255 0
-5.677620e-001 -4.492087e-001 -8.252857e-001 0 255 0
-5.327022e-001 -4.135642e-001 -8.258139e-001 255 255 0
-1.259897e-001 -5.511207e-001 -1.138263e+000 255 0 0
-1.182782e-001 -5.079080e-001 -1.114321e+000 255 255 0
