ply
format ascii 1.0
element face 0
property list uchar int vertex_indices
element vertex 82
property float x
property float y
property float z
property uchar diffuse_red
property uchar diffuse_green
property uchar diffuse_blue
end_header
-1.570510e-002 -1.453590e-001 -1.000163e+000 0 0 0
-1.657999e-002 -1.438532e-001 -9.990567e-001 0 0 0
-2.018729e-002 -1.429695e-001 -9.951593e-001 0 0 0
-2.317651e-002 -1.409880e-001 -9.900933e-001 0 0 0
-2.820506e-002 -1.386346e-001 -9.851981e-001 0 0 0
-3.332701e-002 -1.340538e-001 -9.770697e-001 0 0 0
-3.974822e-002 -1.267350e-001 -9.668012e-001 0 0 0
-4.628051e-002 -1.162073e-001 -9.538871e-001 0 0 0
-5.352048e-002 -1.011226e-001 -9.400924e-001 0 0 0
-5.789841e-002 -8.208178e-002 -9.260445e-001 0 0 0
-5.851272e-002 -6.595862e-002 -9.185828e-001 0 0 0
-5.807459e-002 -4.920239e-002 -9.138200e-001 0 0 0
-5.475227e-002 -3.463645e-002 -9.137969e-001 0 0 0
-5.408972e-002 -2.055494e-002 -9.148308e-001 0 0 0
-5.420028e-002 -1.373817e-002 -9.158415e-001 0 0 0
-5.642423e-002 -1.624862e-002 -9.176134e-001 0 0 0
-5.990004e-002 -2.451486e-002 -9.187964e-001 0 0 0
-6.466843e-002 -3.791813e-002 -9.205507e-001 0 0 0
-6.841637e-002 -5.572950e-002 -9.227065e-001 0 0 0
-7.138383e-002 -7.652030e-002 -9.239910e-001 0 0 0
-7.097182e-002 -9.612192e-002 -9.259482e-001 0 0 0
-6.765906e-002 -1.164956e-001 -9.314720e-001 0 0 0
-6.506067e-002 -1.310298e-001 -9.371921e-001 0 0 0
-5.879013e-002 -1.481486e-001 -9.445969e-001 0 0 0
-4.749331e-002 -1.607514e-001 -9.549457e-001 0 0 0
-3.392887e-002 -1.697944e-001 -9.710159e-001 0 0 0
-1.768227e-002 -1.718089e-001 -9.884277e-001 0 0 0
-4.094170e-003 -1.700933e-001 -1.002108e+000 0 0 0
9.330796e-003 -1.675665e-001 -1.015767e+000 0 0 0
2.190094e-002 -1.651125e-001 -1.028051e+000 0 0 0
3.334477e-002 -1.626399e-001 -1.037468e+000 0 0 0
4.772139e-002 -1.613438e-001 -1.042373e+000 0 0 0
5.995842e-002 -1.644336e-001 -1.037188e+000 0 0 0
6.916154e-002 -1.719395e-001 -1.030269e+000 0 0 0
7.073938e-002 -1.827264e-001 -1.025760e+000 0 0 0
6.607456e-002 -1.936063e-001 -1.021910e+000 0 0 0
5.679006e-002 -2.049228e-001 -1.020097e+000 0 0 0
4.383379e-002 -2.141321e-001 -1.021813e+000 0 0 0
3.077695e-002 -2.206687e-001 -1.024221e+000 0 0 0
1.539327e-002 -2.237763e-001 -1.028456e+000 0 0 0
3.106327e-003 -2.237399e-001 -1.033603e+000 0 0 0
-1.065731e-002 -2.224802e-001 -1.040805e+000 0 0 0
-2.393853e-002 -2.186014e-001 -1.048448e+000 0 0 0
-3.412761e-002 -2.147124e-001 -1.059201e+000 0 0 0
-4.094276e-002 -2.106716e-001 -1.073265e+000 0 0 0
-4.206432e-002 -2.104376e-001 -1.089376e+000 0 0 0
-3.674914e-002 -2.137218e-001 -1.103829e+000 0 0 0
-2.640880e-002 -2.213424e-001 -1.115558e+000 0 0 0
-1.127555e-002 -2.306787e-001 -1.121735e+000 0 0 0
6.658290e-003 -2.397551e-001 -1.124602e+000 0 0 0
2.422840e-002 -2.474213e-001 -1.123892e+000 0 0 0
3.923583e-002 -2.531242e-001 -1.120799e+000 0 0 0
5.142384e-002 -2.567713e-001 -1.115167e+000 0 0 0
6.484781e-002 -2.609141e-001 -1.108331e+000 0 0 0
7.911359e-002 -2.613839e-001 -1.100429e+000 0 0 0
9.340563e-002 -2.616919e-001 -1.091661e+000 0 0 0
1.053549e-001 -2.584034e-001 -1.079775e+000 0 0 0
1.152208e-001 -2.546228e-001 -1.066605e+000 0 0 0
1.226489e-001 -2.501272e-001 -1.053585e+000 0 0 0
1.276042e-001 -2.421216e-001 -1.037228e+000 0 0 0
1.283688e-001 -2.324270e-001 -1.022333e+000 0 0 0
1.245848e-001 -2.215360e-001 -1.006845e+000 0 0 0
1.156830e-001 -2.141799e-001 -9.947980e-001 0 0 0
1.047684e-001 -2.080279e-001 -9.830935e-001 0 0 0
8.982361e-002 -2.014993e-001 -9.730372e-001 0 0 0
7.549035e-002 -1.935281e-001 -9.646112e-001 0 0 0
6.122206e-002 -1.864800e-001 -9.592285e-001 0 0 0
4.007092e-002 -1.808718e-001 -9.525331e-001 0 0 0
1.663137e-002 -1.784535e-001 -9.463396e-001 0 0 0
-5.773559e-003 -1.744619e-001 -9.393766e-001 0 0 0
-2.451460e-002 -1.690963e-001 -9.341044e-001 0 0 0
-3.777373e-002 -1.636921e-001 -9.329147e-001 0 0 0
-4.884928e-002 -1.550261e-001 -9.324947e-001 0 0 0
-5.684829e-002 -1.462504e-001 -9.350521e-001 0 0 0
-1.056906e-001 3.238562e-002 -2.117836e-001 0 255 0
-9.961142e-002 2.993641e-002 -2.613521e-001 255 255 0
-6.768985e-001 -9.927290e-002 -4.538098e-001 255 0 0
-6.422482e-001 -9.427283e-002 -4.895079e-001 255 255 0
4.049999e-001 -5.038210e-001 -1.076357e+000 0 255 0
3.739898e-001 -4.653362e-001 -1.068788e+000 255 255 0
-1.098282e-001 -5.880563e-001 -1.259260e+000 255 0 0
-1.089188e-001 -5.438833e-001 -1.235853e+000 255 255 0
