ply
format ascii 1.0
element face 0
property list uchar int vertex_indices
element vertex 78
property float x
property float y
property float z
property uchar diffuse_red
property uchar diffuse_green
property uchar diffuse_blue
end_header
-9.666014e-003 -1.471829e-001 -1.013654e+000 0 0 0
-1.021225e-002 -1.458011e-001 -1.012667e+000 0 0 0
-1.348028e-002 -1.452886e-001 -1.009929e+000 0 0 0
-1.606589e-002 -1.437633e-001 -1.005371e+000 0 0 0
-2.192441e-002 -1.417512e-001 -1.000177e+000 0 0 0
-2.536188e-002 -1.379808e-001 -9.938096e-001 0 0 0
-3.119601e-002 -1.311623e-001 -9.845429e-001 0 0 0
-3.700859e-002 -1.212001e-001 -9.720123e-001 0 0 0
-4.260621e-002 -1.060715e-001 -9.588528e-001 0 0 0
-4.571420e-002 -8.689146e-002 -9.446653e-001 0 0 0
-4.494997e-002 -6.940496e-002 -9.370071e-001 0 0 0
-4.371870e-002 -5.101463e-002 -9.308490e-001 0 0 0
-4.024455e-002 -3.552639e-002 -9.301489e-001 0 0 0
-3.927118e-002 -1.962780e-002 -9.300046e-001 0 0 0
-3.942860e-002 -1.207522e-002 -9.304126e-001 0 0 0
-4.193335e-002 -1.476803e-002 -9.325148e-001 0 0 0
-4.592192e-002 -2.351874e-002 -9.345945e-001 0 0 0
-5.198963e-002 -3.848875e-002 -9.369127e-001 0 0 0
-5.615014e-002 -5.770098e-002 -9.409607e-001 0 0 0
-6.007393e-002 -8.058983e-002 -9.433400e-001 0 0 0
-6.016526e-002 -1.021015e-001 -9.461709e-001 0 0 0
-5.729717e-002 -1.238607e-001 -9.525456e-001 0 0 0
-5.573419e-002 -1.390423e-001 -9.586390e-001 0 0 0
-4.940609e-002 -1.571585e-001 -9.663675e-001 0 0 0
-3.954436e-002 -1.691090e-001 -9.753575e-001 0 0 0
-2.559843e-002 -1.771997e-001 -9.906505e-001 0 0 0
-1.162850e-002 -1.764546e-001 -1.004014e+000 0 0 0
2.614715e-003 -1.729834e-001 -1.016440e+000 0 0 0
1.460150e-002 -1.685617e-001 -1.027000e+000 0 0 0
2.382843e-002 -1.641211e-001 -1.034102e+000 0 0 0
3.722519e-002 -1.599213e-001 -1.044003e+000 0 0 0
4.948077e-002 -1.576714e-001 -1.045365e+000 0 0 0
6.413578e-002 -1.616951e-001 -1.042194e+000 0 0 0
7.323029e-002 -1.691133e-001 -1.033696e+000 0 0 0
7.637334e-002 -1.810558e-001 -1.031235e+000 0 0 0
7.219027e-002 -1.924224e-001 -1.029211e+000 0 0 0
6.245608e-002 -2.045724e-001 -1.029179e+000 0 0 0
4.801779e-002 -2.152904e-001 -1.032871e+000 0 0 0
3.384637e-002 -2.207775e-001 -1.033746e+000 0 0 0
1.781999e-002 -2.247637e-001 -1.041216e+000 0 0 0
4.411822e-003 -2.245608e-001 -1.047437e+000 0 0 0
-1.106372e-002 -2.229727e-001 -1.054677e+000 0 0 0
-2.621478e-002 -2.189383e-001 -1.060499e+000 0 0 0
-3.759577e-002 -2.134404e-001 -1.072791e+000 0 0 0
-4.605108e-002 -2.081979e-001 -1.083997e+000 0 0 0
-4.834412e-002 -2.058907e-001 -1.098947e+000 0 0 0
-4.450029e-002 -2.077355e-001 -1.109790e+000 0 0 0
-3.614039e-002 -2.133866e-001 -1.118098e+000 0 0 0
-1.925373e-002 -2.220088e-001 -1.124263e+000 0 0 0
-1.659342e-003 -2.303042e-001 -1.123186e+000 0 0 0
1.551121e-002 -2.373061e-001 -1.120984e+000 0 0 0
3.136662e-002 -2.423781e-001 -1.118563e+000 0 0 0
4.340823e-002 -2.465939e-001 -1.111121e+000 0 0 0
5.618396e-002 -2.500467e-001 -1.104907e+000 0 0 0
7.248704e-002 -2.517873e-001 -1.096878e+000 0 0 0
8.714147e-002 -2.517903e-001 -1.088941e+000 0 0 0
1.010350e-001 -2.496935e-001 -1.076522e+000 0 0 0
1.132939e-001 -2.478529e-001 -1.067862e+000 0 0 0
1.218192e-001 -2.441409e-001 -1.053548e+000 0 0 0
1.292473e-001 -2.375962e-001 -1.038329e+000 0 0 0
1.323631e-001 -2.295051e-001 -1.024979e+000 0 0 0
1.317012e-001 -2.203235e-001 -1.012048e+000 0 0 0
1.255935e-001 -2.151669e-001 -1.003016e+000 0 0 0
1.160643e-001 -2.100675e-001 -9.920657e-001 0 0 0
1.029736e-001 -2.057639e-001 -9.843009e-001 0 0 0
9.088952e-002 -1.991557e-001 -9.775536e-001 0 0 0
7.539644e-002 -1.924583e-001 -9.731710e-001 0 0 0
5.397406e-002 -1.882430e-001 -9.672047e-001 0 0 0
3.086239e-002 -1.865956e-001 -9.639047e-001 0 0 0
8.031425e-003 -1.840668e-001 -9.586377e-001 0 0 0
-1.157827e-002 -1.797438e-001 -9.552044e-001 0 0 0
-2.619079e-002 -1.748479e-001 -9.537262e-001 0 0 0
-3.767163e-002 -1.657192e-001 -9.547022e-001 0 0 0
-4.626363e-002 -1.564407e-001 -9.565973e-001 0 0 0
-6.256913e-003 -7.852212e-003 -6.560059e-002 0 255 0
-5.938955e-003 -7.389617e-003 -1.155974e-001 255 255 0
-9.326227e-001 -1.789404e-001 -3.766378e-001 255 0 0
-8.944199e-001 -1.711488e-001 -4.079402e-001 255 255 0
