ply
format ascii 1.0
element face 0
property list uchar int vertex_indices
element vertex 101
property float x
property float y
property float z
property uchar diffuse_red
property uchar diffuse_green
property uchar diffuse_blue
end_header
-5.438639e-002 -1.054020e-001 -1.034897e+000 0 0 0
-4.626367e-002 -1.096817e-001 -1.034518e+000 0 0 0
-4.710454e-002 -1.118545e-001 -1.030124e+000 0 0 0
-6.413239e-002 -1.330170e-001 -1.001785e+000 0 0 0
-5.390732e-002 -1.127980e-001 -1.025535e+000 0 0 0
-4.901607e-002 -1.127211e-001 -1.029722e+000 0 0 0
-4.420559e-002 -1.125001e-001 -1.031016e+000 0 0 0
-4.435455e-002 -1.141083e-001 -1.026951e+000 0 0 0
-2.299603e-002 -6.931737e-002 -8.923748e-001 0 0 0
-3.015309e-002 -6.678747e-002 -8.940867e-001 0 0 0
-2.517508e-002 -6.349881e-002 -8.994380e-001 0 0 0
-1.712250e-002 -5.805388e-002 -9.084913e-001 0 0 0
6.289814e-003 -4.446301e-002 -9.324868e-001 0 0 0
1.054820e-002 -4.285348e-002 -9.351729e-001 0 0 0
1.147101e-002 -4.230114e-002 -9.356262e-001 0 0 0
6.626706e-003 -4.454726e-002 -9.328766e-001 0 0 0
-1.846253e-002 -5.730326e-002 -9.092262e-001 0 0 0
-2.785961e-002 -6.110669e-002 -9.045332e-001 0 0 0
-3.291288e-002 -6.459243e-002 -8.970617e-001 0 0 0
-3.578091e-002 -6.720411e-002 -8.923517e-001 0 0 0
-3.569951e-002 -7.055415e-002 -8.891446e-001 0 0 0
-3.117436e-002 -6.808530e-002 -8.925870e-001 0 0 0
-2.328374e-002 -6.121884e-002 -9.039026e-001 0 0 0
-2.082699e-002 -5.718300e-002 -9.098459e-001 0 0 0
-1.806467e-002 -5.366594e-002 -9.155900e-001 0 0 0
-1.495671e-002 -5.050972e-002 -9.194398e-001 0 0 0
-1.487402e-002 -5.246663e-002 -9.184193e-001 0 0 0
-1.861616e-002 -5.475530e-002 -9.127981e-001 0 0 0
-2.399226e-002 -5.852753e-002 -9.084290e-001 0 0 0
-2.677301e-002 -6.086688e-002 -9.026263e-001 0 0 0
-2.769597e-002 -6.580587e-002 -8.961190e-001 0 0 0
-2.361568e-002 -6.952720e-002 -8.933176e-001 0 0 0
-1.905056e-002 -6.978820e-002 -8.902230e-001 0 0 0
-1.044431e-002 -6.932664e-002 -8.967940e-001 0 0 0
2.932091e-003 -6.817767e-002 -8.989922e-001 0 0 0
4.082970e-002 -5.985858e-002 -9.159868e-001 0 0 0
1.889470e-001 -8.801818e-002 -9.806646e-001 0 0 0
1.830543e-001 -8.293135e-002 -9.910052e-001 0 0 0
-1.993323e-002 -2.198651e-001 -9.105608e-001 0 0 0
-2.117065e-003 -2.467780e-001 -8.870086e-001 0 0 0
-6.174432e-003 -2.486517e-001 -8.806377e-001 0 0 0
-9.584783e-003 -2.511833e-001 -8.778259e-001 0 0 0
-1.220654e-002 -2.497076e-001 -8.779781e-001 0 0 0
-1.480224e-002 -2.452851e-001 -8.822228e-001 0 0 0
-1.455939e-002 -2.427398e-001 -8.860238e-001 0 0 0
-1.609322e-002 -2.372973e-001 -8.920945e-001 0 0 0
-1.822665e-002 -2.328681e-001 -8.968844e-001 0 0 0
-1.835057e-002 -2.291184e-001 -9.013644e-001 0 0 0
-3.648473e-002 -2.048542e-001 -9.244704e-001 0 0 0
-4.042638e-002 -2.029243e-001 -9.261019e-001 0 0 0
-4.365366e-002 -2.011016e-001 -9.276140e-001 0 0 0
-4.974708e-002 -1.996135e-001 -9.278354e-001 0 0 0
-5.528533e-002 -1.974920e-001 -9.284953e-001 0 0 0
-6.186180e-002 -1.949602e-001 -9.295069e-001 0 0 0
-6.408328e-002 -1.926237e-001 -9.302590e-001 0 0 0
-6.533631e-002 -1.895170e-001 -9.340808e-001 0 0 0
-6.596026e-002 -1.865950e-001 -9.366534e-001 0 0 0
-6.843719e-002 -1.840296e-001 -9.398352e-001 0 0 0
-6.429396e-002 -1.165636e-001 -1.020737e+000 0 0 0
-6.223335e-002 -1.112706e-001 -1.027778e+000 0 0 0
-6.090602e-002 -1.070535e-001 -1.031864e+000 0 0 0
-4.853275e-002 -9.605222e-002 -1.048259e+000 0 0 0
-4.885240e-002 -9.307264e-002 -1.051646e+000 0 0 0
-2.562597e-002 -1.370266e-002 -9.628749e-001 0 0 0
2.291306e-001 -9.468681e-002 -9.217947e-001 0 0 0
2.346432e-001 -9.009741e-002 -9.240443e-001 0 0 0
2.352652e-001 -8.867257e-002 -9.250119e-001 0 0 0
2.364907e-001 -8.648379e-002 -9.292959e-001 0 0 0
-2.009685e-002 -1.407956e-002 -9.657976e-001 0 0 0
4.004124e-002 -9.988641e-002 -1.070453e+000 0 0 0
-4.201480e-002 -1.056548e-001 -1.036622e+000 0 0 0
-3.326299e-002 -1.120332e-001 -1.033702e+000 0 0 0
-7.269955e-002 -3.687012e-002 -9.231762e-001 0 0 0
-6.290772e-002 -4.445930e-002 -9.166704e-001 0 0 0
-5.749296e-002 -4.935040e-002 -9.111184e-001 0 0 0
-4.065642e-002 -5.639655e-002 -9.066568e-001 0 0 0
-3.117143e-002 -5.833626e-002 -9.046832e-001 0 0 0
7.232030e-003 -4.717172e-002 -9.275501e-001 0 0 0
1.295303e-002 -4.299997e-002 -9.347893e-001 0 0 0
9.561205e-003 -4.285328e-002 -9.337825e-001 0 0 0
-1.245818e-002 -5.635963e-002 -9.114941e-001 0 0 0
-1.563917e-002 -6.261109e-002 -9.035205e-001 0 0 0
-1.042665e-002 -6.889800e-002 -8.958532e-001 0 0 0
-3.870819e-003 -7.256073e-002 -8.926295e-001 0 0 0
-1.163017e-003 -7.377491e-002 -8.909059e-001 0 0 0
-1.641024e-002 -7.586067e-002 -8.875045e-001 0 0 0
-2.387452e-002 -7.578704e-002 -8.839003e-001 0 0 0
-2.193626e-002 -7.653927e-002 -8.840247e-001 0 0 0
-1.802032e-002 -7.666264e-002 -8.834731e-001 0 0 0
-1.456680e-002 -7.623503e-002 -8.851392e-001 0 0 0
-1.570156e-002 -7.012754e-002 -8.919043e-001 0 0 0
-9.514889e-003 -6.348859e-002 -9.040955e-001 0 0 0
4.226575e-003 -5.327353e-002 -9.199931e-001 0 0 0
-1.642354e-002 -4.739034e-002 -9.232624e-001 0 0 0
-1.932439e-002 -3.523785e-002 -9.398082e-001 0 0 0
-1.982483e-002 -1.261913e-002 -9.686450e-001 0 0 0
-2.762375e-002 -1.488027e-002 -9.653990e-001 0 0 0
-1.679949e-002 -8.051723e-003 -1.832444e-002 0 255 0
-1.590996e-002 -7.594526e-003 -6.831444e-002 255 255 0
8.095488e-001 2.779947e-001 -5.618496e-001 255 0 0
7.674441e-001 2.651151e-001 -5.855417e-001 255 255 0
