ply
format ascii 1.0
element face 0
property list uchar int vertex_indices
element vertex 102
property float x
property float y
property float z
property uchar diffuse_red
property uchar diffuse_green
property uchar diffuse_blue
end_header
-6.510405e-002 -1.246665e-001 -1.052660e+000 0 0 0
-5.530409e-002 -1.279926e-001 -1.047860e+000 0 0 0
-5.589660e-002 -1.297686e-001 -1.043344e+000 0 0 0
-6.996598e-002 -1.474434e-001 -1.012813e+000 0 0 0
-6.322952e-002 -1.307265e-001 -1.041466e+000 0 0 0
-5.719731e-002 -1.303685e-001 -1.042930e+000 0 0 0
-5.293973e-002 -1.303945e-001 -1.043998e+000 0 0 0
-5.332692e-002 -1.318774e-001 -1.039804e+000 0 0 0
-8.441512e-003 -6.937179e-002 -8.734172e-001 0 0 0
-1.510129e-002 -6.731063e-002 -8.763840e-001 0 0 0
-1.108556e-002 -6.499990e-002 -8.812679e-001 0 0 0
-4.559487e-003 -6.069794e-002 -8.893105e-001 0 0 0
1.494384e-002 -5.040822e-002 -9.097671e-001 0 0 0
1.896643e-002 -4.915200e-002 -9.118805e-001 0 0 0
1.938597e-002 -4.878842e-002 -9.123223e-001 0 0 0
1.515705e-002 -5.049095e-002 -9.098828e-001 0 0 0
-6.186058e-003 -6.014836e-002 -8.903200e-001 0 0 0
-1.355745e-002 -6.279771e-002 -8.852922e-001 0 0 0
-1.791662e-002 -6.554317e-002 -8.791312e-001 0 0 0
-2.027544e-002 -6.750208e-002 -8.750713e-001 0 0 0
-1.941484e-002 -6.991801e-002 -8.714539e-001 0 0 0
-1.550505e-002 -6.820031e-002 -8.746493e-001 0 0 0
-9.497115e-003 -6.290331e-002 -8.849494e-001 0 0 0
-7.679143e-003 -5.982778e-002 -8.905080e-001 0 0 0
-5.883200e-003 -5.703069e-002 -8.956406e-001 0 0 0
-3.510462e-003 -5.475855e-002 -9.004384e-001 0 0 0
-2.873243e-003 -5.610865e-002 -8.974490e-001 0 0 0
-6.099778e-003 -5.810129e-002 -8.936327e-001 0 0 0
-1.047736e-002 -6.087254e-002 -8.891159e-001 0 0 0
-1.272300e-002 -6.266724e-002 -8.845380e-001 0 0 0
-1.296857e-002 -6.651059e-002 -8.775921e-001 0 0 0
-8.786598e-003 -6.952315e-002 -8.732893e-001 0 0 0
-4.568154e-003 -6.986088e-002 -8.724334e-001 0 0 0
3.186864e-003 -6.932786e-002 -8.747910e-001 0 0 0
1.493664e-002 -6.862514e-002 -8.758664e-001 0 0 0
4.731259e-002 -6.328552e-002 -8.880346e-001 0 0 0
1.714832e-001 -9.557761e-002 -9.331522e-001 0 0 0
-1.580053e-002 -2.166105e-001 -9.002129e-001 0 0 0
4.376752e-003 -2.357400e-001 -8.694849e-001 0 0 0
4.065837e-004 -2.374777e-001 -8.649143e-001 0 0 0
-1.963422e-003 -2.391873e-001 -8.621899e-001 0 0 0
-4.756031e-003 -2.384047e-001 -8.635080e-001 0 0 0
-7.794967e-003 -2.352446e-001 -8.683873e-001 0 0 0
-7.908892e-003 -2.333187e-001 -8.721923e-001 0 0 0
-1.002222e-002 -2.293214e-001 -8.789895e-001 0 0 0
-1.224934e-002 -2.258499e-001 -8.841711e-001 0 0 0
-1.296656e-002 -2.233516e-001 -8.895794e-001 0 0 0
-3.319735e-002 -2.050333e-001 -9.177871e-001 0 0 0
-3.716266e-002 -2.035332e-001 -9.205327e-001 0 0 0
-4.054187e-002 -2.021408e-001 -9.225900e-001 0 0 0
-4.623144e-002 -2.009429e-001 -9.238048e-001 0 0 0
-5.175660e-002 -1.992480e-001 -9.254536e-001 0 0 0
-5.859535e-002 -1.973997e-001 -9.280322e-001 0 0 0
-6.142597e-002 -1.958966e-001 -9.303426e-001 0 0 0
-6.292451e-002 -1.933096e-001 -9.344467e-001 0 0 0
-6.412776e-002 -1.910518e-001 -9.383133e-001 0 0 0
-6.674482e-002 -1.889095e-001 -9.416009e-001 0 0 0
-7.264533e-002 -1.334618e-001 -1.035661e+000 0 0 0
-7.084015e-002 -1.289091e-001 -1.043587e+000 0 0 0
-7.072873e-002 -1.254805e-001 -1.049528e+000 0 0 0
-1.905965e-002 -2.479705e-002 -9.507614e-001 0 0 0
2.055350e-001 -9.321066e-002 -8.636639e-001 0 0 0
2.098819e-001 -8.952570e-002 -8.650298e-001 0 0 0
2.103671e-001 -8.840446e-002 -8.658650e-001 0 0 0
2.113029e-001 -8.707065e-002 -8.700230e-001 0 0 0
-1.428912e-002 -2.505262e-002 -9.513742e-001 0 0 0
2.747886e-002 -1.223710e-001 -1.075889e+000 0 0 0
-5.190814e-002 -1.251178e-001 -1.052815e+000 0 0 0
-4.286836e-002 -1.301895e-001 -1.045381e+000 0 0 0
-5.919876e-002 -4.238695e-002 -9.149032e-001 0 0 0
-4.871218e-002 -4.887147e-002 -9.051557e-001 0 0 0
-4.324103e-002 -5.303757e-002 -8.988345e-001 0 0 0
-2.601152e-002 -5.885014e-002 -8.904305e-001 0 0 0
-1.729696e-002 -6.075801e-002 -8.876003e-001 0 0 0
1.625466e-002 -5.252603e-002 -9.054889e-001 0 0 0
2.087542e-002 -4.932608e-002 -9.110697e-001 0 0 0
1.791271e-002 -4.930083e-002 -9.110863e-001 0 0 0
-6.105842e-004 -5.953291e-002 -8.914496e-001 0 0 0
-2.446968e-003 -6.417957e-002 -8.831375e-001 0 0 0
3.270185e-003 -6.914268e-002 -8.742920e-001 0 0 0
9.484444e-003 -7.210803e-002 -8.698212e-001 0 0 0
1.180579e-002 -7.314838e-002 -8.682425e-001 0 0 0
-1.512204e-003 -7.450423e-002 -8.657098e-001 0 0 0
-8.114375e-003 -7.441375e-002 -8.644006e-001 0 0 0
-6.328230e-003 -7.482479e-002 -8.641321e-001 0 0 0
-2.717550e-003 -7.508715e-002 -8.633441e-001 0 0 0
-5.867923e-005 -7.490043e-002 -8.644475e-001 0 0 0
-1.535440e-003 -7.014551e-002 -8.724112e-001 0 0 0
3.518640e-003 -6.508876e-002 -8.828262e-001 0 0 0
1.440032e-002 -5.723749e-002 -8.972075e-001 0 0 0
-5.651591e-003 -5.247854e-002 -9.045742e-001 0 0 0
-9.533489e-003 -4.242314e-002 -9.215505e-001 0 0 0
-1.292937e-002 -2.368936e-002 -9.539179e-001 0 0 0
-1.966375e-002 -2.538277e-002 -9.515799e-001 0 0 0
7.931089e-002 3.699461e-002 -2.241117e-001 0 255 0
7.434025e-002 3.363632e-002 -2.737505e-001 255 255 0
5.134757e-001 1.582177e-001 -5.541870e-001 255 0 0
4.767594e-001 1.479191e-001 -5.865266e-001 255 255 0
-4.939737e-001 3.749991e-001 -9.508365e-001 0 255 0
-4.588992e-001 3.397629e-001 -9.455269e-001 255 255 0
-7.362378e-002 5.007871e-001 -1.199964e+000 255 0 0
-6.853513e-002 4.585914e-001 -1.173628e+000 255 255 0
