ply
format ascii 1.0
element face 0
property list uchar int vertex_indices
element vertex 93
property float x
property float y
property float z
property uchar diffuse_red
property uchar diffuse_green
property uchar diffuse_blue
end_header
-3.384153e-001 2.993760e-001 -7.694148e-001 0 0 0
-3.401899e-001 2.910378e-001 -7.737539e-001 0 0 0
-3.450204e-001 2.820423e-001 -7.800417e-001 0 0 0
-3.505097e-001 2.817148e-001 -7.858050e-001 0 0 0
-3.485913e-001 2.840052e-001 -7.821935e-001 0 0 0
-3.494543e-001 3.013654e-001 -7.825658e-001 0 0 0
-2.828614e-001 3.490121e-001 -7.949488e-001 0 0 0
-2.899130e-001 3.478325e-001 -8.036826e-001 0 0 0
-2.949220e-001 3.457254e-001 -8.035319e-001 0 0 0
-2.965849e-001 3.449774e-001 -8.043420e-001 0 0 0
-2.974569e-001 3.444734e-001 -8.050445e-001 0 0 0
-2.970339e-001 3.441817e-001 -8.050169e-001 0 0 0
-2.957375e-001 3.442587e-001 -8.047083e-001 0 0 0
-3.019702e-001 3.456016e-001 -8.059637e-001 0 0 0
-3.189693e-001 3.457028e-001 -8.027484e-001 0 0 0
-3.383973e-001 3.459239e-001 -7.983755e-001 0 0 0
-3.506199e-001 3.434313e-001 -7.948044e-001 0 0 0
-3.579535e-001 3.392993e-001 -7.943022e-001 0 0 0
-3.657286e-001 3.345293e-001 -7.953752e-001 0 0 0
-3.763097e-001 3.264523e-001 -7.929867e-001 0 0 0
-3.861126e-001 3.151651e-001 -7.941650e-001 0 0 0
-3.948347e-001 3.018696e-001 -7.962361e-001 0 0 0
-3.987253e-001 2.870409e-001 -7.984699e-001 0 0 0
-3.969996e-001 2.743301e-001 -8.001243e-001 0 0 0
-3.885440e-001 2.614434e-001 -7.983558e-001 0 0 0
-3.783680e-001 2.463971e-001 -7.948405e-001 0 0 0
-3.667024e-001 2.317115e-001 -7.928739e-001 0 0 0
-3.534262e-001 2.187837e-001 -7.859685e-001 0 0 0
-3.281075e-001 2.314274e-001 -7.664927e-001 0 0 0
-3.297962e-001 2.437618e-001 -7.609950e-001 0 0 0
-3.329478e-001 2.561209e-001 -7.579143e-001 0 0 0
-3.376503e-001 2.690512e-001 -7.518455e-001 0 0 0
-3.416389e-001 2.788697e-001 -7.484455e-001 0 0 0
-3.448244e-001 2.850518e-001 -7.445517e-001 0 0 0
-3.459119e-001 2.872813e-001 -7.415693e-001 0 0 0
-3.426879e-001 2.843217e-001 -7.357605e-001 0 0 0
-3.383434e-001 2.754545e-001 -7.296262e-001 0 0 0
-3.335755e-001 2.625127e-001 -7.236082e-001 0 0 0
-3.279431e-001 2.431857e-001 -7.201263e-001 0 0 0
-3.182250e-001 2.213833e-001 -7.164731e-001 0 0 0
-3.080210e-001 1.924390e-001 -7.227318e-001 0 0 0
-3.031921e-001 1.729569e-001 -7.293085e-001 0 0 0
-3.456461e-001 1.655947e-001 -7.463267e-001 0 0 0
-3.609377e-001 1.813871e-001 -7.443965e-001 0 0 0
-3.730718e-001 1.993366e-001 -7.441728e-001 0 0 0
-3.815616e-001 2.250214e-001 -7.423817e-001 0 0 0
-3.834999e-001 2.488526e-001 -7.409509e-001 0 0 0
-3.808287e-001 2.704085e-001 -7.398680e-001 0 0 0
-3.745968e-001 2.894053e-001 -7.391421e-001 0 0 0
-3.696523e-001 3.033111e-001 -7.409162e-001 0 0 0
-3.639542e-001 3.171238e-001 -7.458368e-001 0 0 0
-3.539188e-001 3.278141e-001 -7.506803e-001 0 0 0
-3.392668e-001 3.374819e-001 -7.575479e-001 0 0 0
-3.223073e-001 3.444105e-001 -7.634332e-001 0 0 0
-3.090022e-001 3.477810e-001 -7.683415e-001 0 0 0
-2.991383e-001 3.486227e-001 -7.753939e-001 0 0 0
-2.903811e-001 3.468007e-001 -7.858415e-001 0 0 0
-2.802460e-001 3.412955e-001 -7.964173e-001 0 0 0
-2.752065e-001 3.353457e-001 -8.051358e-001 0 0 0
-2.774838e-001 3.303014e-001 -8.124681e-001 0 0 0
-2.931505e-001 3.273851e-001 -8.193890e-001 0 0 0
-3.092383e-001 3.255500e-001 -8.250560e-001 0 0 0
-3.249817e-001 3.236075e-001 -8.260986e-001 0 0 0
-3.373341e-001 3.220373e-001 -8.211417e-001 0 0 0
-3.434926e-001 3.226975e-001 -8.133292e-001 0 0 0
-3.417441e-001 3.289041e-001 -8.030738e-001 0 0 0
-3.302679e-001 3.376910e-001 -7.931071e-001 0 0 0
-3.154277e-001 3.453961e-001 -7.878881e-001 0 0 0
-3.029939e-001 3.528485e-001 -7.895138e-001 0 0 0
-2.967345e-001 3.579028e-001 -7.939295e-001 0 0 0
-2.922908e-001 3.631140e-001 -8.014457e-001 0 0 0
-2.906373e-001 3.675477e-001 -8.063550e-001 0 0 0
-2.919075e-001 3.722126e-001 -8.096577e-001 0 0 0
-2.965960e-001 3.791750e-001 -8.146356e-001 0 0 0
-3.090249e-001 3.866692e-001 -8.157655e-001 0 0 0
-3.256296e-001 3.927861e-001 -8.147502e-001 0 0 0
-3.423042e-001 3.956356e-001 -8.145503e-001 0 0 0
-3.616062e-001 3.943719e-001 -8.130099e-001 0 0 0
-3.763642e-001 3.894165e-001 -8.108881e-001 0 0 0
-3.875716e-001 3.783479e-001 -8.078004e-001 0 0 0
-3.970232e-001 3.613546e-001 -8.027647e-001 0 0 0
-3.990624e-001 3.411002e-001 -8.027350e-001 0 0 0
-3.947663e-001 3.137810e-001 -8.036212e-001 0 0 0
-3.870157e-001 2.977698e-001 -8.064499e-001 0 0 0
-3.756777e-001 2.860997e-001 -8.066436e-001 0 0 0
-3.620719e-001 2.735153e-001 -8.013837e-001 0 0 0
-3.498837e-001 2.653433e-001 -7.944940e-001 0 0 0
-3.374854e-001 2.609737e-001 -7.865631e-001 0 0 0
-3.302987e-001 2.590700e-001 -7.829460e-001 0 0 0
6.924270e-002 -2.075057e-003 -8.263541e-002 0 255 0
6.695918e-002 -1.457893e-003 -1.325794e-001 255 255 0
-1.067030e+000 9.644832e-002 5.032511e-003 255 0 0
-1.029750e+000 7.542636e-002 -2.081741e-002 255 255 0
