ply
format ascii 1.0
element face 0
property list uchar int vertex_indices
element vertex 97
property float x
property float y
property float z
property uchar diffuse_red
property uchar diffuse_green
property uchar diffuse_blue
end_header
-3.338419e-001 3.045591e-001 -7.594834e-001 0 0 0
-3.341223e-001 3.016371e-001 -7.609342e-001 0 0 0
-3.354552e-001 2.988459e-001 -7.636114e-001 0 0 0
-3.371413e-001 2.994683e-001 -7.663024e-001 0 0 0
-3.365126e-001 2.998587e-001 -7.645717e-001 0 0 0
-3.370252e-001 3.073061e-001 -7.660771e-001 0 0 0
-3.155244e-001 3.314333e-001 -7.835295e-001 0 0 0
-3.176693e-001 3.324685e-001 -7.882241e-001 0 0 0
-3.192998e-001 3.316543e-001 -7.874610e-001 0 0 0
-3.198359e-001 3.313644e-001 -7.877084e-001 0 0 0
-3.201460e-001 3.312912e-001 -7.880891e-001 0 0 0
-3.199939e-001 3.310614e-001 -7.880092e-001 0 0 0
-3.194935e-001 3.311000e-001 -7.880868e-001 0 0 0
-3.215703e-001 3.320505e-001 -7.881892e-001 0 0 0
-3.275361e-001 3.323048e-001 -7.855285e-001 0 0 0
-3.336307e-001 3.316173e-001 -7.809708e-001 0 0 0
-3.382319e-001 3.291290e-001 -7.763898e-001 0 0 0
-3.404949e-001 3.270452e-001 -7.753055e-001 0 0 0
-3.430159e-001 3.244330e-001 -7.741256e-001 0 0 0
-3.460191e-001 3.204839e-001 -7.718607e-001 0 0 0
-3.487888e-001 3.152826e-001 -7.705051e-001 0 0 0
-3.509569e-001 3.097099e-001 -7.700772e-001 0 0 0
-3.518956e-001 3.036170e-001 -7.701009e-001 0 0 0
-3.509070e-001 2.983259e-001 -7.699929e-001 0 0 0
-3.481805e-001 2.930728e-001 -7.691733e-001 0 0 0
-3.447578e-001 2.869618e-001 -7.678834e-001 0 0 0
-3.412603e-001 2.810929e-001 -7.662851e-001 0 0 0
-3.373119e-001 2.759215e-001 -7.638139e-001 0 0 0
-3.304231e-001 2.782613e-001 -7.557411e-001 0 0 0
-3.310039e-001 2.822171e-001 -7.537902e-001 0 0 0
-3.321120e-001 2.863552e-001 -7.518733e-001 0 0 0
-3.336197e-001 2.905941e-001 -7.493324e-001 0 0 0
-3.348925e-001 2.937867e-001 -7.476214e-001 0 0 0
-3.358283e-001 2.957153e-001 -7.458595e-001 0 0 0
-3.362734e-001 2.962592e-001 -7.444075e-001 0 0 0
-3.354176e-001 2.944986e-001 -7.419867e-001 0 0 0
-3.342378e-001 2.905509e-001 -7.390717e-001 0 0 0
-3.327906e-001 2.851658e-001 -7.364855e-001 0 0 0
-3.313117e-001 2.784473e-001 -7.350348e-001 0 0 0
-3.286665e-001 2.710646e-001 -7.349053e-001 0 0 0
-3.255540e-001 2.615581e-001 -7.366464e-001 0 0 0
-3.241885e-001 2.557312e-001 -7.393153e-001 0 0 0
-3.352666e-001 2.546368e-001 -7.427435e-001 0 0 0
-3.392288e-001 2.597422e-001 -7.413676e-001 0 0 0
-3.427188e-001 2.655430e-001 -7.405132e-001 0 0 0
-3.454307e-001 2.744300e-001 -7.410384e-001 0 0 0
-3.463021e-001 2.826111e-001 -7.410045e-001 0 0 0
-3.458621e-001 2.899650e-001 -7.410943e-001 0 0 0
-3.444999e-001 2.969303e-001 -7.416277e-001 0 0 0
-3.431797e-001 3.025713e-001 -7.432567e-001 0 0 0
-3.417096e-001 3.088061e-001 -7.464831e-001 0 0 0
-3.389110e-001 3.141574e-001 -7.502561e-001 0 0 0
-3.348293e-001 3.190581e-001 -7.546044e-001 0 0 0
-3.300094e-001 3.229276e-001 -7.590006e-001 0 0 0
-3.252612e-001 3.258674e-001 -7.641092e-001 0 0 0
-3.218136e-001 3.275282e-001 -7.691002e-001 0 0 0
-3.184089e-001 3.283604e-001 -7.760914e-001 0 0 0
-3.147045e-001 3.275993e-001 -7.833524e-001 0 0 0
-3.123398e-001 3.261795e-001 -7.897188e-001 0 0 0
-3.128056e-001 3.250710e-001 -7.940168e-001 0 0 0
-3.174578e-001 3.255716e-001 -7.972274e-001 0 0 0
-3.232013e-001 3.256325e-001 -7.985052e-001 0 0 0
-3.283075e-001 3.251815e-001 -7.972695e-001 0 0 0
-3.332585e-001 3.230642e-001 -7.921174e-001 0 0 0
-3.352750e-001 3.222210e-001 -7.865656e-001 0 0 0
-3.349231e-001 3.234841e-001 -7.815957e-001 0 0 0
-3.315852e-001 3.260974e-001 -7.773522e-001 0 0 0
-3.272346e-001 3.283390e-001 -7.755810e-001 0 0 0
-3.226530e-001 3.324883e-001 -7.779482e-001 0 0 0
-3.201963e-001 3.364292e-001 -7.828176e-001 0 0 0
-3.187163e-001 3.402464e-001 -7.879510e-001 0 0 0
-3.180331e-001 3.444356e-001 -7.929906e-001 0 0 0
-3.184629e-001 3.484712e-001 -7.964886e-001 0 0 0
-3.201758e-001 3.532929e-001 -7.996675e-001 0 0 0
-3.238920e-001 3.574271e-001 -7.995158e-001 0 0 0
-3.299035e-001 3.611203e-001 -7.982532e-001 0 0 0
-3.359651e-001 3.625902e-001 -7.964255e-001 0 0 0
-3.428649e-001 3.614794e-001 -7.934691e-001 0 0 0
-3.491189e-001 3.587225e-001 -7.900973e-001 0 0 0
-3.519930e-001 3.513373e-001 -7.856455e-001 0 0 0
-3.541810e-001 3.402129e-001 -7.799125e-001 0 0 0
-3.539039e-001 3.289691e-001 -7.767745e-001 0 0 0
-3.519375e-001 3.167541e-001 -7.756414e-001 0 0 0
-3.486296e-001 3.095955e-001 -7.767335e-001 0 0 0
-3.448514e-001 3.042406e-001 -7.760858e-001 0 0 0
-3.405301e-001 2.982111e-001 -7.734680e-001 0 0 0
-3.363621e-001 2.937794e-001 -7.699332e-001 0 0 0
-3.329500e-001 2.913203e-001 -7.669548e-001 0 0 0
-3.307946e-001 2.900942e-001 -7.652661e-001 0 0 0
-2.772646e-001 1.977871e-001 -5.945918e-001 0 255 0
-2.621655e-001 1.948209e-001 -6.421651e-001 255 255 0
-4.403257e-001 2.160580e-001 -5.328328e-001 255 0 0
-4.108098e-001 1.929552e-001 -5.659247e-001 255 255 0
-1.301507e+000 -1.070384e+000 -3.427169e-001 0 255 0
-1.326598e+000 -1.110494e+000 -3.265415e-001 255 255 0
-4.709357e-001 6.655152e-001 -8.015613e-001 255 0 0
-4.735611e-001 6.156128e-001 -8.032517e-001 255 255 0
