ply
format ascii 1.0
element face 0
property list uchar int vertex_indices
element vertex 59
property float x
property float y
property float z
property uchar diffuse_red
property uchar diffuse_green
property uchar diffuse_blue
end_header
-2.104238e-001 -1.185457e-001 -9.618363e-001 0 0 0
-1.841426e-001 -1.271275e-001 -9.476141e-001 0 0 0
-1.649097e-001 -1.301495e-001 -9.337233e-001 0 0 0
-1.487338e-001 -1.286985e-001 -9.200531e-001 0 0 0
-1.312270e-001 -1.206217e-001 -9.052729e-001 0 0 0
-1.180336e-001 -1.061458e-001 -8.957416e-001 0 0 0
-1.126064e-001 -8.432233e-002 -8.874653e-001 0 0 0
-1.087885e-001 -6.414072e-002 -8.845167e-001 0 0 0
-1.054165e-001 -4.086891e-002 -8.884982e-001 0 0 0
-1.055788e-001 -2.454263e-002 -8.957724e-001 0 0 0
-1.078213e-001 -1.561531e-002 -9.023346e-001 0 0 0
-1.121482e-001 -2.170725e-002 -9.138548e-001 0 0 0
-1.164481e-001 -3.765892e-002 -9.220478e-001 0 0 0
-1.187933e-001 -6.024648e-002 -9.282112e-001 0 0 0
-1.159444e-001 -7.518095e-002 -9.310586e-001 0 0 0
-1.090488e-001 -8.758268e-002 -9.340354e-001 0 0 0
-9.968673e-002 -9.238184e-002 -9.396233e-001 0 0 0
-8.651499e-002 -9.216235e-002 -9.494627e-001 0 0 0
-7.202807e-002 -8.830222e-002 -9.590697e-001 0 0 0
-6.139789e-002 -8.432434e-002 -9.638506e-001 0 0 0
-4.965965e-002 -7.840960e-002 -9.654929e-001 0 0 0
-4.024870e-002 -7.277678e-002 -9.649827e-001 0 0 0
-3.372819e-002 -6.575549e-002 -9.594314e-001 0 0 0
-3.084555e-002 -5.852172e-002 -9.503981e-001 0 0 0
-3.205153e-002 -4.986420e-002 -9.357006e-001 0 0 0
-3.681094e-002 -4.197528e-002 -9.177078e-001 0 0 0
-4.615094e-002 -3.399188e-002 -9.043692e-001 0 0 0
-5.579065e-002 -3.043977e-002 -8.912251e-001 0 0 0
-7.120787e-002 -3.276452e-002 -8.834161e-001 0 0 0
-8.883268e-002 -3.992782e-002 -8.729680e-001 0 0 0
-1.022400e-001 -4.956148e-002 -8.635645e-001 0 0 0
-1.168680e-001 -7.041084e-002 -8.527799e-001 0 0 0
-1.267187e-001 -9.017126e-002 -8.448591e-001 0 0 0
-1.333814e-001 -1.130871e-001 -8.427350e-001 0 0 0
-1.376968e-001 -1.290623e-001 -8.469052e-001 0 0 0
-1.450934e-001 -1.402143e-001 -8.580172e-001 0 0 0
-1.583571e-001 -1.438263e-001 -8.702148e-001 0 0 0
-1.698395e-001 -1.363747e-001 -8.770196e-001 0 0 0
-1.705929e-001 -1.238320e-001 -8.816258e-001 0 0 0
-1.652432e-001 -1.095933e-001 -8.828341e-001 0 0 0
-1.509296e-001 -9.028266e-002 -8.789964e-001 0 0 0
-1.348068e-001 -6.623623e-002 -8.709465e-001 0 0 0
-1.230525e-001 -4.604031e-002 -8.651304e-001 0 0 0
-1.164487e-001 -2.926073e-002 -8.588289e-001 0 0 0
-1.136851e-001 -1.491163e-002 -8.500397e-001 0 0 0
-1.102473e-001 -6.240932e-003 -8.403352e-001 0 0 0
-1.080020e-001 -7.161614e-003 -8.335855e-001 0 0 0
-1.027477e-001 -2.539215e-002 -8.350270e-001 0 0 0
-9.966017e-002 -4.877679e-002 -8.430258e-001 0 0 0
-1.012943e-001 -7.153679e-002 -8.545848e-001 0 0 0
-1.071367e-001 -9.130451e-002 -8.733879e-001 0 0 0
-1.193868e-001 -9.883014e-002 -8.902054e-001 0 0 0
-1.290548e-001 -9.994379e-002 -9.071111e-001 0 0 0
-1.409631e-001 -9.502103e-002 -9.251111e-001 0 0 0
-1.479768e-001 -8.617767e-002 -9.391137e-001 0 0 0
-2.291642e-004 -1.505504e-004 -3.826517e-004 0 255 0
-2.069935e-004 -1.608382e-004 -5.038265e-002 255 255 0
7.940871e-001 -2.722557e-001 -5.439263e-001 255 0 0
7.530359e-001 -2.597904e-001 -5.696053e-001 255 255 0
