ply
format ascii 1.0
element face 0
property list uchar int vertex_indices
element vertex 63
property float x
property float y
property float z
property uchar diffuse_red
property uchar diffuse_green
property uchar diffuse_blue
end_header
-2.222390e-001 -1.211353e-001 -9.703255e-001 0 0 0
-1.927787e-001 -1.268988e-001 -9.505451e-001 0 0 0
-1.709530e-001 -1.275387e-001 -9.337337e-001 0 0 0
-1.474772e-001 -1.238911e-001 -9.126380e-001 0 0 0
-1.263154e-001 -1.141402e-001 -8.955271e-001 0 0 0
-1.110418e-001 -9.868942e-002 -8.841541e-001 0 0 0
-1.038070e-001 -7.784658e-002 -8.771230e-001 0 0 0
-9.997745e-002 -5.801373e-002 -8.756637e-001 0 0 0
-9.720567e-002 -3.660784e-002 -8.816095e-001 0 0 0
-9.913129e-002 -2.122716e-002 -8.913560e-001 0 0 0
-1.026211e-001 -1.305015e-002 -8.996180e-001 0 0 0
-1.089381e-001 -1.932681e-002 -9.123301e-001 0 0 0
-1.152691e-001 -3.562929e-002 -9.211579e-001 0 0 0
-1.191809e-001 -5.712102e-002 -9.262890e-001 0 0 0
-1.158608e-001 -7.252457e-002 -9.272135e-001 0 0 0
-1.091913e-001 -8.447041e-002 -9.284037e-001 0 0 0
-1.008162e-001 -8.921979e-002 -9.331799e-001 0 0 0
-8.884397e-002 -8.919507e-002 -9.420248e-001 0 0 0
-7.644466e-002 -8.615165e-002 -9.506484e-001 0 0 0
-6.578752e-002 -8.214041e-002 -9.560998e-001 0 0 0
-5.464579e-002 -7.652936e-002 -9.567109e-001 0 0 0
-4.453107e-002 -7.079141e-002 -9.555378e-001 0 0 0
-3.734699e-002 -6.351332e-002 -9.492817e-001 0 0 0
-3.275388e-002 -5.580703e-002 -9.385166e-001 0 0 0
-3.184151e-002 -4.701908e-002 -9.237965e-001 0 0 0
-3.456168e-002 -3.811664e-002 -9.067543e-001 0 0 0
-4.106973e-002 -2.989253e-002 -8.919708e-001 0 0 0
-4.906878e-002 -2.602270e-002 -8.811402e-001 0 0 0
-6.227028e-002 -2.817897e-002 -8.723489e-001 0 0 0
-7.741146e-002 -3.440912e-002 -8.636107e-001 0 0 0
-8.924313e-002 -4.331476e-002 -8.527115e-001 0 0 0
-1.020662e-001 -6.220320e-002 -8.418392e-001 0 0 0
-1.098661e-001 -8.045809e-002 -8.318580e-001 0 0 0
-1.165059e-001 -1.013049e-001 -8.288127e-001 0 0 0
-1.209799e-001 -1.166990e-001 -8.315167e-001 0 0 0
-1.311122e-001 -1.284569e-001 -8.432717e-001 0 0 0
-1.473327e-001 -1.334467e-001 -8.574777e-001 0 0 0
-1.607792e-001 -1.275331e-001 -8.671217e-001 0 0 0
-1.623225e-001 -1.162475e-001 -8.728657e-001 0 0 0
-1.570815e-001 -1.024685e-001 -8.753728e-001 0 0 0
-1.425641e-001 -8.362406e-002 -8.717001e-001 0 0 0
-1.234430e-001 -5.954747e-002 -8.632241e-001 0 0 0
-1.110159e-001 -4.016992e-002 -8.576396e-001 0 0 0
-1.029566e-001 -2.383310e-002 -8.518391e-001 0 0 0
-9.833142e-002 -1.033200e-002 -8.437465e-001 0 0 0
-9.355244e-002 -1.637476e-003 -8.344293e-001 0 0 0
-8.950034e-002 -2.586079e-003 -8.260195e-001 0 0 0
-8.526672e-002 -1.906845e-002 -8.261501e-001 0 0 0
-8.264524e-002 -4.170095e-002 -8.315277e-001 0 0 0
-8.647033e-002 -6.341026e-002 -8.419551e-001 0 0 0
-9.608185e-002 -8.314081e-002 -8.610800e-001 0 0 0
-1.112413e-001 -9.158619e-002 -8.786261e-001 0 0 0
-1.255382e-001 -9.436576e-002 -8.999653e-001 0 0 0
-1.408682e-001 -9.167368e-002 -9.211675e-001 0 0 0
-1.522932e-001 -8.407898e-002 -9.406981e-001 0 0 0
9.575889e-002 2.714157e-002 -1.898864e-001 0 255 0
8.926123e-002 2.529121e-002 -2.394278e-001 255 255 0
6.146777e-001 -1.734692e-001 -5.067222e-001 255 0 0
5.771835e-001 -1.651584e-001 -5.387397e-001 255 255 0
-6.347465e-001 -4.595082e-001 -9.592098e-001 0 255 0
-5.981884e-001 -4.254862e-001 -9.567573e-001 255 255 0
-1.270967e-001 -5.877307e-001 -1.219040e+000 255 0 0
-1.196166e-001 -5.438137e-001 -1.196339e+000 255 255 0
