ply
format ascii 1.0
element face 0
property list uchar int vertex_indices
element vertex 82
property float x
property float y
property float z
property uchar diffuse_red
property uchar diffuse_green
property uchar diffuse_blue
end_header
-2.387199e-001 2.608622e-001 -5.897999e-001 0 0 0
-2.363691e-001 2.626107e-001 -5.892839e-001 0 0 0
-2.360981e-001 2.630094e-001 -5.889875e-001 0 0 0
-2.368192e-001 2.624409e-001 -5.891603e-001 0 0 0
-2.391361e-001 2.611852e-001 -5.890364e-001 0 0 0
-2.433669e-001 2.589451e-001 -5.887466e-001 0 0 0
-2.491927e-001 2.553350e-001 -5.886413e-001 0 0 0
-2.564339e-001 2.499682e-001 -5.884096e-001 0 0 0
-2.620361e-001 2.455560e-001 -5.882533e-001 0 0 0
-2.679597e-001 2.387250e-001 -5.870852e-001 0 0 0
-2.734888e-001 2.293636e-001 -5.869894e-001 0 0 0
-2.769088e-001 2.172634e-001 -5.859758e-001 0 0 0
-2.793171e-001 2.038059e-001 -5.847353e-001 0 0 0
-2.780667e-001 1.897897e-001 -5.819615e-001 0 0 0
-2.742744e-001 1.738600e-001 -5.775506e-001 0 0 0
-2.695654e-001 1.616065e-001 -5.756056e-001 0 0 0
-2.642967e-001 1.502494e-001 -5.740922e-001 0 0 0
-2.581622e-001 1.435890e-001 -5.724371e-001 0 0 0
-2.508193e-001 1.458047e-001 -5.685172e-001 0 0 0
-2.402283e-001 1.525236e-001 -5.635748e-001 0 0 0
-2.322492e-001 1.602046e-001 -5.583008e-001 0 0 0
-2.275020e-001 1.686253e-001 -5.560615e-001 0 0 0
-2.257350e-001 1.776242e-001 -5.544597e-001 0 0 0
-2.275052e-001 1.859270e-001 -5.537272e-001 0 0 0
-2.326356e-001 1.922080e-001 -5.539501e-001 0 0 0
-2.408847e-001 1.986490e-001 -5.554238e-001 0 0 0
-2.517496e-001 2.024733e-001 -5.582240e-001 0 0 0
-2.628987e-001 2.042606e-001 -5.645287e-001 0 0 0
-2.730349e-001 2.029806e-001 -5.704844e-001 0 0 0
-2.826517e-001 1.986208e-001 -5.764061e-001 0 0 0
-2.894284e-001 1.954593e-001 -5.824736e-001 0 0 0
-2.962165e-001 1.941855e-001 -5.898103e-001 0 0 0
-3.011785e-001 1.938735e-001 -5.959970e-001 0 0 0
-3.051955e-001 1.954181e-001 -6.051384e-001 0 0 0
-3.057203e-001 1.982203e-001 -6.127854e-001 0 0 0
-3.026089e-001 2.027923e-001 -6.181968e-001 0 0 0
-2.978841e-001 2.111168e-001 -6.212637e-001 0 0 0
-2.917401e-001 2.200997e-001 -6.220498e-001 0 0 0
-2.835283e-001 2.300389e-001 -6.210678e-001 0 0 0
-2.740505e-001 2.406622e-001 -6.171354e-001 0 0 0
-2.657051e-001 2.494819e-001 -6.108758e-001 0 0 0
-2.554899e-001 2.578222e-001 -6.027608e-001 0 0 0
-2.480890e-001 2.625514e-001 -5.947618e-001 0 0 0
-2.389305e-001 2.678655e-001 -5.857557e-001 0 0 0
-2.340845e-001 2.700452e-001 -5.773384e-001 0 0 0
-2.314933e-001 2.698639e-001 -5.679808e-001 0 0 0
-2.312976e-001 2.676292e-001 -5.608002e-001 0 0 0
-2.342188e-001 2.636615e-001 -5.564183e-001 0 0 0
-2.433955e-001 2.579112e-001 -5.566465e-001 0 0 0
-2.551952e-001 2.516094e-001 -5.603418e-001 0 0 0
-2.694930e-001 2.432681e-001 -5.659468e-001 0 0 0
-2.820946e-001 2.341873e-001 -5.729324e-001 0 0 0
-2.930225e-001 2.245398e-001 -5.774107e-001 0 0 0
-3.013566e-001 2.165157e-001 -5.831108e-001 0 0 0
-3.073702e-001 2.103889e-001 -5.869200e-001 0 0 0
-3.132905e-001 2.058633e-001 -5.934622e-001 0 0 0
-3.176505e-001 2.064797e-001 -6.005220e-001 0 0 0
-3.199904e-001 2.111733e-001 -6.062316e-001 0 0 0
-3.214356e-001 2.175496e-001 -6.117546e-001 0 0 0
-3.207799e-001 2.244674e-001 -6.164854e-001 0 0 0
-3.171454e-001 2.353003e-001 -6.196550e-001 0 0 0
-3.057191e-001 2.514430e-001 -6.197556e-001 0 0 0
-2.941422e-001 2.639086e-001 -6.190553e-001 0 0 0
-2.807675e-001 2.762778e-001 -6.182544e-001 0 0 0
-2.688396e-001 2.846551e-001 -6.171668e-001 0 0 0
-2.545629e-001 2.917971e-001 -6.149426e-001 0 0 0
-2.417833e-001 2.957854e-001 -6.122536e-001 0 0 0
-2.273349e-001 2.986624e-001 -6.082607e-001 0 0 0
-1.973552e-001 2.861699e-001 -5.887938e-001 0 0 0
-2.063600e-001 2.836598e-001 -5.920543e-001 0 0 0
-2.137208e-001 2.810244e-001 -5.941347e-001 0 0 0
-2.230172e-001 2.787807e-001 -5.964734e-001 0 0 0
-2.334413e-001 2.760248e-001 -5.988175e-001 0 0 0
-2.426628e-001 2.728817e-001 -6.006417e-001 0 0 0
-2.515937e-001 2.683825e-001 -6.012715e-001 0 0 0
-2.564628e-001 2.630914e-001 -6.017713e-001 0 0 0
-2.599418e-001 2.576705e-001 -6.034298e-001 0 0 0
-2.601236e-001 2.534785e-001 -6.051692e-001 0 0 0
-2.074560e-002 -3.313706e-003 2.548483e-003 0 255 0
-1.838311e-002 -3.390460e-003 -4.739561e-002 255 255 0
-9.446760e-001 1.435251e-001 -1.798355e-001 255 0 0
-9.039705e-001 1.185297e-001 -1.946102e-001 255 255 0
