ply
format ascii 1.0
element face 0
property list uchar int vertex_indices
element vertex 86
property float x
property float y
property float z
property uchar diffuse_red
property uchar diffuse_green
property uchar diffuse_blue
end_header
-2.706228e-001 2.522059e-001 -5.865078e-001 0 0 0
-2.700218e-001 2.528052e-001 -5.866791e-001 0 0 0
-2.698785e-001 2.530655e-001 -5.867966e-001 0 0 0
-2.700687e-001 2.528517e-001 -5.867311e-001 0 0 0
-2.707767e-001 2.522226e-001 -5.861892e-001 0 0 0
-2.719581e-001 2.511151e-001 -5.851273e-001 0 0 0
-2.737754e-001 2.493860e-001 -5.838055e-001 0 0 0
-2.757089e-001 2.471914e-001 -5.822942e-001 0 0 0
-2.775418e-001 2.451118e-001 -5.808317e-001 0 0 0
-2.793438e-001 2.423963e-001 -5.790556e-001 0 0 0
-2.809079e-001 2.391069e-001 -5.774724e-001 0 0 0
-2.821033e-001 2.350590e-001 -5.757901e-001 0 0 0
-2.830897e-001 2.306479e-001 -5.738506e-001 0 0 0
-2.834382e-001 2.264309e-001 -5.718869e-001 0 0 0
-2.832613e-001 2.220771e-001 -5.701664e-001 0 0 0
-2.827537e-001 2.188177e-001 -5.690725e-001 0 0 0
-2.821087e-001 2.160919e-001 -5.684774e-001 0 0 0
-2.811858e-001 2.144337e-001 -5.680232e-001 0 0 0
-2.797624e-001 2.148814e-001 -5.676609e-001 0 0 0
-2.778318e-001 2.163081e-001 -5.670847e-001 0 0 0
-2.763202e-001 2.179693e-001 -5.664593e-001 0 0 0
-2.751372e-001 2.200319e-001 -5.664761e-001 0 0 0
-2.746174e-001 2.222297e-001 -5.664665e-001 0 0 0
-2.748056e-001 2.242306e-001 -5.663928e-001 0 0 0
-2.757897e-001 2.257268e-001 -5.660725e-001 0 0 0
-2.772675e-001 2.273762e-001 -5.661647e-001 0 0 0
-2.791947e-001 2.285573e-001 -5.665456e-001 0 0 0
-2.811662e-001 2.293596e-001 -5.676651e-001 0 0 0
-2.829568e-001 2.293501e-001 -5.688717e-001 0 0 0
-2.847857e-001 2.283712e-001 -5.699185e-001 0 0 0
-2.858240e-001 2.279821e-001 -5.716133e-001 0 0 0
-2.867823e-001 2.280568e-001 -5.735759e-001 0 0 0
-2.874091e-001 2.284866e-001 -5.756274e-001 0 0 0
-2.875941e-001 2.297559e-001 -5.790979e-001 0 0 0
-2.869811e-001 2.312978e-001 -5.825787e-001 0 0 0
-2.857935e-001 2.333419e-001 -5.857134e-001 0 0 0
-2.839851e-001 2.366464e-001 -5.889665e-001 0 0 0
-2.823585e-001 2.399532e-001 -5.910550e-001 0 0 0
-2.800029e-001 2.436423e-001 -5.927892e-001 0 0 0
-2.776134e-001 2.473356e-001 -5.933327e-001 0 0 0
-2.757671e-001 2.501634e-001 -5.926718e-001 0 0 0
-2.737174e-001 2.525577e-001 -5.909194e-001 0 0 0
-2.721858e-001 2.537251e-001 -5.885682e-001 0 0 0
-2.709944e-001 2.543195e-001 -5.854003e-001 0 0 0
-2.707484e-001 2.537152e-001 -5.814386e-001 0 0 0
-2.714991e-001 2.521562e-001 -5.768301e-001 0 0 0
-2.725862e-001 2.499521e-001 -5.729023e-001 0 0 0
-2.740482e-001 2.477344e-001 -5.702513e-001 0 0 0
-2.764987e-001 2.453555e-001 -5.688975e-001 0 0 0
-2.786435e-001 2.436092e-001 -5.693651e-001 0 0 0
-2.816436e-001 2.412811e-001 -5.701195e-001 0 0 0
-2.843839e-001 2.386028e-001 -5.706654e-001 0 0 0
-2.865234e-001 2.359245e-001 -5.710100e-001 0 0 0
-2.881798e-001 2.337760e-001 -5.717524e-001 0 0 0
-2.892279e-001 2.322860e-001 -5.724145e-001 0 0 0
-2.901791e-001 2.314682e-001 -5.741283e-001 0 0 0
-2.906419e-001 2.321888e-001 -5.764961e-001 0 0 0
-2.907607e-001 2.342593e-001 -5.791583e-001 0 0 0
-2.906348e-001 2.367301e-001 -5.816912e-001 0 0 0
-2.900242e-001 2.396975e-001 -5.847840e-001 0 0 0
-2.886635e-001 2.441050e-001 -5.880591e-001 0 0 0
-2.857149e-001 2.504501e-001 -5.913391e-001 0 0 0
-2.820944e-001 2.563699e-001 -5.947543e-001 0 0 0
-2.779182e-001 2.617605e-001 -5.978319e-001 0 0 0
-2.742737e-001 2.657737e-001 -6.001633e-001 0 0 0
-2.704386e-001 2.689202e-001 -6.014670e-001 0 0 0
-2.665907e-001 2.711401e-001 -6.027606e-001 0 0 0
-2.623234e-001 2.728782e-001 -6.035508e-001 0 0 0
-2.563724e-001 2.660557e-001 -5.964986e-001 0 0 0
-2.582965e-001 2.651685e-001 -5.975027e-001 0 0 0
-2.605413e-001 2.640116e-001 -5.971882e-001 0 0 0
-2.632466e-001 2.629405e-001 -5.967632e-001 0 0 0
-2.664477e-001 2.613552e-001 -5.956375e-001 0 0 0
-2.693955e-001 2.593789e-001 -5.937160e-001 0 0 0
-2.720494e-001 2.570753e-001 -5.920159e-001 0 0 0
-2.737661e-001 2.546031e-001 -5.907496e-001 0 0 0
-2.747085e-001 2.524540e-001 -5.903276e-001 0 0 0
-2.747011e-001 2.510605e-001 -5.907608e-001 0 0 0
-2.828355e-001 1.760908e-001 -4.643995e-001 0 255 0
-2.582620e-001 1.730624e-001 -5.078388e-001 255 255 0
-3.603005e-001 1.983783e-001 -4.689661e-001 255 0 0
-3.269347e-001 1.731904e-001 -4.963940e-001 255 255 0
-1.202892e+000 -6.782683e-001 -2.694545e-001 0 255 0
-1.236087e+000 -7.126183e-001 -2.546844e-001 255 255 0
-3.002249e-001 4.072661e-001 -6.311838e-001 255 0 0
-3.151151e-001 3.595405e-001 -6.304391e-001 255 255 0
