ply
format ascii 1.0
element face 0
property list uchar int vertex_indices
element vertex 133
property float x
property float y
property float z
property uchar diffuse_red
property uchar diffuse_green
property uchar diffuse_blue
end_header
5.193630e-002 -1.682942e-001 -1.189712e+000 0 0 0
5.340327e-002 -1.707751e-001 -1.177213e+000 0 0 0
4.884707e-002 -1.700118e-001 -1.168965e+000 0 0 0
4.122025e-002 -1.662015e-001 -1.163681e+000 0 0 0
3.601296e-002 -1.652409e-001 -1.165172e+000 0 0 0
2.827043e-002 -1.608367e-001 -1.166778e+000 0 0 0
1.568484e-002 -1.517528e-001 -1.171680e+000 0 0 0
4.756315e-003 -1.394077e-001 -1.182093e+000 0 0 0
-1.265095e-003 -1.275085e-001 -1.192473e+000 0 0 0
1.333537e-003 -1.152063e-001 -1.204985e+000 0 0 0
8.412372e-003 -1.037839e-001 -1.216395e+000 0 0 0
2.334286e-002 -9.464787e-002 -1.229743e+000 0 0 0
4.120517e-002 -9.393165e-002 -1.237141e+000 0 0 0
6.264662e-002 -1.003799e-001 -1.234629e+000 0 0 0
8.168737e-002 -1.079143e-001 -1.225587e+000 0 0 0
9.419487e-002 -1.121348e-001 -1.217261e+000 0 0 0
1.097372e-001 -1.193792e-001 -1.209716e+000 0 0 0
1.204265e-001 -1.229235e-001 -1.201270e+000 0 0 0
1.273955e-001 -1.269308e-001 -1.193413e+000 0 0 0
1.298330e-001 -1.335005e-001 -1.189292e+000 0 0 0
1.260187e-001 -1.435759e-001 -1.191592e+000 0 0 0
1.194149e-001 -1.538025e-001 -1.201411e+000 0 0 0
1.089944e-001 -1.643733e-001 -1.218836e+000 0 0 0
9.920703e-002 -1.711673e-001 -1.234593e+000 0 0 0
8.972154e-002 -1.769366e-001 -1.250661e+000 0 0 0
8.478227e-002 -1.789515e-001 -1.265390e+000 0 0 0
8.178876e-002 -1.817052e-001 -1.282053e+000 0 0 0
7.931113e-002 -1.837399e-001 -1.296300e+000 0 0 0
8.096523e-002 -1.839308e-001 -1.310168e+000 0 0 0
8.327054e-002 -1.836428e-001 -1.321585e+000 0 0 0
8.520719e-002 -1.837142e-001 -1.328271e+000 0 0 0
8.842049e-002 -1.849300e-001 -1.335494e+000 0 0 0
9.071475e-002 -1.866548e-001 -1.340639e+000 0 0 0
9.319029e-002 -1.887849e-001 -1.344197e+000 0 0 0
9.418839e-002 -1.900841e-001 -1.345613e+000 0 0 0
9.420577e-002 -1.917178e-001 -1.344138e+000 0 0 0
9.298844e-002 -1.926540e-001 -1.341331e+000 0 0 0
8.985538e-002 -1.936629e-001 -1.336475e+000 0 0 0
8.584074e-002 -1.949221e-001 -1.331001e+000 0 0 0
8.022669e-002 -1.959574e-001 -1.323864e+000 0 0 0
7.265127e-002 -1.955759e-001 -1.318026e+000 0 0 0
6.292496e-002 -1.924234e-001 -1.313750e+000 0 0 0
4.955091e-002 -1.887569e-001 -1.311516e+000 0 0 0
3.247830e-002 -1.837037e-001 -1.308414e+000 0 0 0
1.765246e-002 -1.808174e-001 -1.306870e+000 0 0 0
-3.206242e-004 -1.740149e-001 -1.304351e+000 0 0 0
-1.326695e-002 -1.698008e-001 -1.302655e+000 0 0 0
-2.670013e-002 -1.646756e-001 -1.300488e+000 0 0 0
-3.742749e-002 -1.598357e-001 -1.299474e+000 0 0 0
-5.061832e-002 -1.540267e-001 -1.296701e+000 0 0 0
-6.110415e-002 -1.488422e-001 -1.293078e+000 0 0 0
-7.162314e-002 -1.427466e-001 -1.288713e+000 0 0 0
-8.343292e-002 -1.359021e-001 -1.281751e+000 0 0 0
-9.379174e-002 -1.299517e-001 -1.273860e+000 0 0 0
-1.006936e-001 -1.244232e-001 -1.266608e+000 0 0 0
-1.063121e-001 -1.192577e-001 -1.257894e+000 0 0 0
-1.107406e-001 -1.145683e-001 -1.249160e+000 0 0 0
-1.137300e-001 -1.095822e-001 -1.238744e+000 0 0 0
-1.161586e-001 -1.045485e-001 -1.228410e+000 0 0 0
-1.154593e-001 -9.976453e-002 -1.219517e+000 0 0 0
-1.127467e-001 -9.419586e-002 -1.210027e+000 0 0 0
-1.106312e-001 -8.717120e-002 -1.198923e+000 0 0 0
-1.095174e-001 -7.975603e-002 -1.187933e+000 0 0 0
-1.058121e-001 -7.305197e-002 -1.177331e+000 0 0 0
-1.026932e-001 -6.372458e-002 -1.168061e+000 0 0 0
-1.023708e-001 -5.208642e-002 -1.159351e+000 0 0 0
-1.033296e-001 -4.227785e-002 -1.150992e+000 0 0 0
-1.049646e-001 -3.211892e-002 -1.141522e+000 0 0 0
-1.073752e-001 -2.417429e-002 -1.128872e+000 0 0 0
-1.088422e-001 -1.663275e-002 -1.113685e+000 0 0 0
-1.093174e-001 -1.094097e-002 -1.099850e+000 0 0 0
-1.087407e-001 -7.871718e-003 -1.086012e+000 0 0 0
-1.073470e-001 -5.057819e-003 -1.073606e+000 0 0 0
-1.060712e-001 4.161715e-004 -1.061855e+000 0 0 0
-1.045376e-001 7.699195e-003 -1.048012e+000 0 0 0
-1.037765e-001 1.463658e-002 -1.035329e+000 0 0 0
-1.012156e-001 2.117018e-002 -1.017873e+000 0 0 0
-1.007923e-001 2.844209e-002 -1.002694e+000 0 0 0
-1.012127e-001 3.846173e-002 -9.916680e-001 0 0 0
-1.025113e-001 5.621960e-002 -9.862390e-001 0 0 0
-1.036587e-001 7.137526e-002 -9.842006e-001 0 0 0
-1.038428e-001 8.764103e-002 -9.804021e-001 0 0 0
-1.068137e-001 9.569710e-002 -9.883609e-001 0 0 0
-1.103407e-001 8.582502e-002 -9.991174e-001 0 0 0
-1.141394e-001 7.476961e-002 -1.012271e+000 0 0 0
-1.171431e-001 6.117554e-002 -1.024413e+000 0 0 0
-1.188175e-001 4.598685e-002 -1.031265e+000 0 0 0
-1.195257e-001 2.887204e-002 -1.036778e+000 0 0 0
-1.185496e-001 1.356448e-002 -1.041882e+000 0 0 0
-1.167195e-001 -1.078495e-003 -1.046728e+000 0 0 0
-1.153698e-001 -1.411928e-002 -1.051141e+000 0 0 0
-1.136940e-001 -2.555844e-002 -1.058038e+000 0 0 0
-1.118776e-001 -3.651825e-002 -1.065601e+000 0 0 0
-1.103142e-001 -4.489809e-002 -1.072154e+000 0 0 0
-1.081934e-001 -5.407743e-002 -1.079891e+000 0 0 0
-1.060898e-001 -6.155643e-002 -1.087577e+000 0 0 0
-1.029913e-001 -7.053759e-002 -1.099254e+000 0 0 0
-9.938220e-002 -7.789921e-002 -1.110925e+000 0 0 0
-9.556454e-002 -8.483210e-002 -1.123208e+000 0 0 0
-9.122878e-002 -9.160162e-002 -1.141561e+000 0 0 0
-8.577024e-002 -9.688119e-002 -1.155030e+000 0 0 0
-8.043254e-002 -1.011514e-001 -1.168945e+000 0 0 0
-7.480797e-002 -1.045618e-001 -1.183732e+000 0 0 0
-6.975601e-002 -1.090724e-001 -1.195873e+000 0 0 0
-6.441488e-002 -1.132187e-001 -1.206577e+000 0 0 0
-5.742052e-002 -1.184463e-001 -1.218498e+000 0 0 0
-4.967868e-002 -1.228809e-001 -1.229447e+000 0 0 0
-4.200912e-002 -1.271680e-001 -1.239250e+000 0 0 0
-2.784994e-002 -1.329520e-001 -1.251350e+000 0 0 0
-1.514374e-002 -1.369420e-001 -1.261332e+000 0 0 0
-1.803819e-003 -1.412289e-001 -1.268982e+000 0 0 0
1.091371e-002 -1.463383e-001 -1.277535e+000 0 0 0
1.947788e-002 -1.477227e-001 -1.282976e+000 0 0 0
2.740362e-002 -1.504520e-001 -1.288469e+000 0 0 0
3.479895e-002 -1.512991e-001 -1.292942e+000 0 0 0
4.077839e-002 -1.524769e-001 -1.296651e+000 0 0 0
4.552101e-002 -1.535124e-001 -1.298339e+000 0 0 0
5.002724e-002 -1.546679e-001 -1.299546e+000 0 0 0
5.387193e-002 -1.552019e-001 -1.301104e+000 0 0 0
5.784227e-002 -1.552941e-001 -1.302654e+000 0 0 0
6.065783e-002 -1.550015e-001 -1.303846e+000 0 0 0
6.261151e-002 -1.549304e-001 -1.305489e+000 0 0 0
6.368485e-002 -1.547334e-001 -1.305934e+000 0 0 0
6.429520e-002 -1.549069e-001 -1.306064e+000 0 0 0
6.376058e-002 -1.548002e-001 -1.306333e+000 0 0 0
-6.366301e-002 2.609336e-002 -1.978728e-001 0 255 0
-6.067473e-002 2.512398e-002 -2.477740e-001 255 255 0
-7.571187e-001 -3.198480e-002 -4.240134e-001 255 0 0
-7.197756e-001 -2.732585e-002 -4.569344e-001 255 255 0
4.667469e-001 -5.120337e-001 -1.327534e+000 0 255 0
4.342001e-001 -4.750216e-001 -1.319119e+000 255 255 0
-1.844187e-001 -5.469656e-001 -1.503252e+000 255 0 0
-1.768625e-001 -5.073884e-001 -1.473645e+000 255 255 0
