ply
format ascii 1.0
element face 0
property list uchar int vertex_indices
element vertex 129
property float x
property float y
property float z
property uchar diffuse_red
property uchar diffuse_green
property uchar diffuse_blue
end_header
5.868715e-002 -1.702370e-001 -1.199220e+000 0 0 0
6.112364e-002 -1.738929e-001 -1.187426e+000 0 0 0
5.688304e-002 -1.737424e-001 -1.180225e+000 0 0 0
4.941461e-002 -1.703909e-001 -1.174819e+000 0 0 0
4.457103e-002 -1.693691e-001 -1.177099e+000 0 0 0
3.618084e-002 -1.651591e-001 -1.177879e+000 0 0 0
2.303410e-002 -1.557217e-001 -1.182571e+000 0 0 0
1.126348e-002 -1.431897e-001 -1.191430e+000 0 0 0
4.424628e-003 -1.304852e-001 -1.201363e+000 0 0 0
5.586358e-003 -1.171874e-001 -1.210859e+000 0 0 0
1.182650e-002 -1.054799e-001 -1.219297e+000 0 0 0
2.581097e-002 -9.547190e-002 -1.230750e+000 0 0 0
4.281823e-002 -9.434466e-002 -1.234911e+000 0 0 0
6.500714e-002 -9.970991e-002 -1.231832e+000 0 0 0
8.395461e-002 -1.070516e-001 -1.223680e+000 0 0 0
9.549124e-002 -1.125385e-001 -1.214989e+000 0 0 0
1.114609e-001 -1.180884e-001 -1.210432e+000 0 0 0
1.237858e-001 -1.225295e-001 -1.203065e+000 0 0 0
1.317920e-001 -1.269633e-001 -1.197228e+000 0 0 0
1.345420e-001 -1.328532e-001 -1.192885e+000 0 0 0
1.306541e-001 -1.426723e-001 -1.195547e+000 0 0 0
1.236682e-001 -1.524258e-001 -1.204363e+000 0 0 0
1.117430e-001 -1.619294e-001 -1.219896e+000 0 0 0
1.007979e-001 -1.687351e-001 -1.234192e+000 0 0 0
8.982803e-002 -1.729770e-001 -1.248489e+000 0 0 0
8.425050e-002 -1.751954e-001 -1.263475e+000 0 0 0
7.943657e-002 -1.760878e-001 -1.275512e+000 0 0 0
7.613825e-002 -1.774029e-001 -1.289857e+000 0 0 0
7.642805e-002 -1.764450e-001 -1.298633e+000 0 0 0
7.756409e-002 -1.756983e-001 -1.307808e+000 0 0 0
7.899168e-002 -1.752536e-001 -1.313732e+000 0 0 0
8.125476e-002 -1.754408e-001 -1.319495e+000 0 0 0
8.309316e-002 -1.768729e-001 -1.323844e+000 0 0 0
8.541057e-002 -1.788380e-001 -1.326664e+000 0 0 0
8.575402e-002 -1.795709e-001 -1.326973e+000 0 0 0
8.608695e-002 -1.812983e-001 -1.325953e+000 0 0 0
8.528606e-002 -1.826787e-001 -1.324149e+000 0 0 0
8.207270e-002 -1.839377e-001 -1.319729e+000 0 0 0
7.888822e-002 -1.861479e-001 -1.316444e+000 0 0 0
7.430726e-002 -1.876249e-001 -1.311406e+000 0 0 0
6.709191e-002 -1.872992e-001 -1.305824e+000 0 0 0
5.937702e-002 -1.856784e-001 -1.304239e+000 0 0 0
4.520943e-002 -1.820682e-001 -1.302531e+000 0 0 0
3.034107e-002 -1.784816e-001 -1.300282e+000 0 0 0
1.265276e-002 -1.744588e-001 -1.299812e+000 0 0 0
-1.435390e-003 -1.702715e-001 -1.298597e+000 0 0 0
-1.522062e-002 -1.660227e-001 -1.298588e+000 0 0 0
-2.776572e-002 -1.622278e-001 -1.296259e+000 0 0 0
-3.934420e-002 -1.570813e-001 -1.296688e+000 0 0 0
-5.229002e-002 -1.520268e-001 -1.294823e+000 0 0 0
-6.270611e-002 -1.474179e-001 -1.291990e+000 0 0 0
-7.385525e-002 -1.415307e-001 -1.289175e+000 0 0 0
-8.420515e-002 -1.358589e-001 -1.283960e+000 0 0 0
-9.303107e-002 -1.309461e-001 -1.277992e+000 0 0 0
-1.005386e-001 -1.256601e-001 -1.272120e+000 0 0 0
-1.053335e-001 -1.214538e-001 -1.264176e+000 0 0 0
-1.095171e-001 -1.171692e-001 -1.256906e+000 0 0 0
-1.122964e-001 -1.129230e-001 -1.247314e+000 0 0 0
-1.141333e-001 -1.086987e-001 -1.238931e+000 0 0 0
-1.131417e-001 -1.042096e-001 -1.230128e+000 0 0 0
-1.098045e-001 -9.909268e-002 -1.221601e+000 0 0 0
-1.068598e-001 -9.205473e-002 -1.210337e+000 0 0 0
-1.054172e-001 -8.545486e-002 -1.201035e+000 0 0 0
-1.014637e-001 -7.866567e-002 -1.189484e+000 0 0 0
-9.755805e-002 -6.983650e-002 -1.181762e+000 0 0 0
-9.722186e-002 -5.841907e-002 -1.172917e+000 0 0 0
-9.800351e-002 -4.873965e-002 -1.164842e+000 0 0 0
-9.905236e-002 -3.871091e-002 -1.155725e+000 0 0 0
-1.009589e-001 -3.096013e-002 -1.144794e+000 0 0 0
-1.017107e-001 -2.378188e-002 -1.129964e+000 0 0 0
-1.014649e-001 -1.863975e-002 -1.117084e+000 0 0 0
-1.002864e-001 -1.585616e-002 -1.103697e+000 0 0 0
-9.821235e-002 -1.329329e-002 -1.091945e+000 0 0 0
-9.605682e-002 -7.885899e-003 -1.080732e+000 0 0 0
-9.388925e-002 -1.036185e-003 -1.067003e+000 0 0 0
-9.231809e-002 6.099324e-003 -1.054642e+000 0 0 0
-8.891430e-002 1.243960e-002 -1.035993e+000 0 0 0
-8.730509e-002 1.969531e-002 -1.022521e+000 0 0 0
-8.744219e-002 2.981192e-002 -1.010950e+000 0 0 0
-8.902682e-002 4.855687e-002 -1.004428e+000 0 0 0
-9.022436e-002 6.451886e-002 -1.002039e+000 0 0 0
-9.006337e-002 8.187109e-002 -9.978347e-001 0 0 0
-9.375189e-002 9.043691e-002 -1.004719e+000 0 0 0
-9.795709e-002 8.033056e-002 -1.015864e+000 0 0 0
-1.023275e-001 6.902146e-002 -1.030260e+000 0 0 0
-1.064803e-001 5.470105e-002 -1.041120e+000 0 0 0
-1.085185e-001 3.913421e-002 -1.049054e+000 0 0 0
-1.090924e-001 2.117494e-002 -1.055233e+000 0 0 0
-1.081038e-001 5.132212e-003 -1.061291e+000 0 0 0
-1.063792e-001 -9.921992e-003 -1.066022e+000 0 0 0
-1.051780e-001 -2.354724e-002 -1.071334e+000 0 0 0
-1.037362e-001 -3.500417e-002 -1.078020e+000 0 0 0
-1.017126e-001 -4.621952e-002 -1.085586e+000 0 0 0
-1.005563e-001 -5.491581e-002 -1.092364e+000 0 0 0
-9.855541e-002 -6.390887e-002 -1.099640e+000 0 0 0
-9.685366e-002 -7.131884e-002 -1.107428e+000 0 0 0
-9.394003e-002 -8.007618e-002 -1.118336e+000 0 0 0
-9.059541e-002 -8.678191e-002 -1.128250e+000 0 0 0
-8.746010e-002 -9.360211e-002 -1.140375e+000 0 0 0
-8.420571e-002 -9.960389e-002 -1.158528e+000 0 0 0
-7.879364e-002 -1.041032e-001 -1.170981e+000 0 0 0
-7.354085e-002 -1.073809e-001 -1.183117e+000 0 0 0
-6.968945e-002 -1.100640e-001 -1.195110e+000 0 0 0
-6.511097e-002 -1.139491e-001 -1.205716e+000 0 0 0
-5.998730e-002 -1.172820e-001 -1.215789e+000 0 0 0
-5.345259e-002 -1.214747e-001 -1.226089e+000 0 0 0
-4.724203e-002 -1.252260e-001 -1.235017e+000 0 0 0
-3.931343e-002 -1.291387e-001 -1.243063e+000 0 0 0
-2.709414e-002 -1.331496e-001 -1.253159e+000 0 0 0
-1.676851e-002 -1.363081e-001 -1.258057e+000 0 0 0
-2.209817e-005 -1.405626e-001 -1.267390e+000 0 0 0
9.588397e-003 -1.439499e-001 -1.274465e+000 0 0 0
2.015500e-002 -1.453209e-001 -1.279638e+000 0 0 0
2.635558e-002 -1.471851e-001 -1.283652e+000 0 0 0
3.266595e-002 -1.476953e-001 -1.285589e+000 0 0 0
3.854966e-002 -1.480364e-001 -1.289328e+000 0 0 0
4.287896e-002 -1.486995e-001 -1.289957e+000 0 0 0
4.626354e-002 -1.493385e-001 -1.289653e+000 0 0 0
5.102251e-002 -1.499532e-001 -1.292184e+000 0 0 0
5.494132e-002 -1.498877e-001 -1.292863e+000 0 0 0
5.696244e-002 -1.492055e-001 -1.293541e+000 0 0 0
5.856902e-002 -1.490046e-001 -1.294707e+000 0 0 0
5.939999e-002 -1.489412e-001 -1.294587e+000 0 0 0
6.019652e-002 -1.489957e-001 -1.295347e+000 0 0 0
5.906045e-002 -1.488424e-001 -1.294852e+000 0 0 0
1.729566e-002 -9.966950e-003 -7.619198e-002 0 255 0
1.653273e-002 -9.342996e-003 -1.261823e-001 255 255 0
-9.953973e-001 -8.987997e-002 -2.854747e-001 255 0 0
-9.567954e-001 -8.425531e-002 -3.167519e-001 255 255 0
