ply
format ascii 1.0
element face 0
property list uchar int vertex_indices
element vertex 112
property float x
property float y
property float z
property uchar diffuse_red
property uchar diffuse_green
property uchar diffuse_blue
end_header
3.434630e-003 -1.402518e-001 -9.559517e-001 0 0 0
-1.279697e-004 -1.399783e-001 -9.536178e-001 0 0 0
-2.085463e-003 -1.380702e-001 -9.515607e-001 0 0 0
-5.292057e-003 -1.357392e-001 -9.506940e-001 0 0 0
-1.011291e-002 -1.318654e-001 -9.489186e-001 0 0 0
-1.819584e-002 -1.249387e-001 -9.454028e-001 0 0 0
-2.642833e-002 -1.144450e-001 -9.422735e-001 0 0 0
-3.191570e-002 -1.003782e-001 -9.395662e-001 0 0 0
-3.634708e-002 -8.176369e-002 -9.414991e-001 0 0 0
-3.918795e-002 -5.785893e-002 -9.456798e-001 0 0 0
-3.920763e-002 -3.266664e-002 -9.529207e-001 0 0 0
-3.673894e-002 -1.708576e-002 -9.609970e-001 0 0 0
-3.247705e-002 -9.233245e-003 -9.726871e-001 0 0 0
-2.685621e-002 -1.011958e-002 -9.854650e-001 0 0 0
-2.431211e-002 -1.711788e-002 -9.993380e-001 0 0 0
-2.199327e-002 -2.847205e-002 -1.013793e+000 0 0 0
-1.935536e-002 -4.315341e-002 -1.028841e+000 0 0 0
-1.742747e-002 -5.660050e-002 -1.039277e+000 0 0 0
-1.802099e-002 -6.920940e-002 -1.047766e+000 0 0 0
-2.132600e-002 -8.062111e-002 -1.054238e+000 0 0 0
-2.947056e-002 -8.920159e-002 -1.059724e+000 0 0 0
-3.802684e-002 -9.381315e-002 -1.062988e+000 0 0 0
-5.137360e-002 -9.954635e-002 -1.062896e+000 0 0 0
-6.516942e-002 -1.033110e-001 -1.060825e+000 0 0 0
-8.045383e-002 -1.042896e-001 -1.052522e+000 0 0 0
-9.382039e-002 -1.019575e-001 -1.040414e+000 0 0 0
-1.028210e-001 -9.667382e-002 -1.027181e+000 0 0 0
-1.108872e-001 -8.661505e-002 -1.009560e+000 0 0 0
-1.160220e-001 -7.461014e-002 -9.903700e-001 0 0 0
-1.201368e-001 -5.823647e-002 -9.674086e-001 0 0 0
-1.209787e-001 -4.085502e-002 -9.440956e-001 0 0 0
-1.188406e-001 -2.348484e-002 -9.245688e-001 0 0 0
-1.126051e-001 -5.620566e-003 -9.005326e-001 0 0 0
-1.016204e-001 7.372081e-003 -8.847072e-001 0 0 0
-8.214878e-002 1.227153e-002 -8.639394e-001 0 0 0
-5.846361e-002 5.145841e-003 -8.637190e-001 0 0 0
-3.770110e-002 -6.232141e-003 -8.659501e-001 0 0 0
-2.492187e-002 -2.166660e-002 -8.714856e-001 0 0 0
-1.904318e-002 -4.884795e-002 -8.703363e-001 0 0 0
-1.596173e-002 -7.697732e-002 -8.668976e-001 0 0 0
-2.073022e-002 -1.035593e-001 -8.626994e-001 0 0 0
-3.224262e-002 -1.204208e-001 -8.626376e-001 0 0 0
-4.460394e-002 -1.237878e-001 -8.633215e-001 0 0 0
-5.978671e-002 -1.161845e-001 -8.729707e-001 0 0 0
-8.020081e-002 -1.025710e-001 -8.877508e-001 0 0 0
-9.903730e-002 -8.625218e-002 -9.102225e-001 0 0 0
-1.124002e-001 -6.679757e-002 -9.247950e-001 0 0 0
-1.226241e-001 -4.113469e-002 -9.276911e-001 0 0 0
-1.276359e-001 -1.914516e-002 -9.305198e-001 0 0 0
-1.320826e-001 -1.798394e-002 -9.460323e-001 0 0 0
-1.343354e-001 -3.187418e-002 -9.694643e-001 0 0 0
-1.303615e-001 -5.771213e-002 -1.000161e+000 0 0 0
-1.179146e-001 -8.566088e-002 -1.028241e+000 0 0 0
-1.010786e-001 -1.102661e-001 -1.050582e+000 0 0 0
-7.688816e-002 -1.300757e-001 -1.067038e+000 0 0 0
-5.582005e-002 -1.448066e-001 -1.076026e+000 0 0 0
-3.204391e-002 -1.580891e-001 -1.084227e+000 0 0 0
-1.113318e-002 -1.688239e-001 -1.084119e+000 0 0 0
1.317374e-002 -1.793366e-001 -1.084311e+000 0 0 0
3.672727e-002 -1.882622e-001 -1.082281e+000 0 0 0
5.555539e-002 -1.929613e-001 -1.079665e+000 0 0 0
7.286632e-002 -1.970026e-001 -1.071219e+000 0 0 0
9.299501e-002 -1.993893e-001 -1.063589e+000 0 0 0
1.151026e-001 -1.989415e-001 -1.055150e+000 0 0 0
1.511439e-001 -1.960377e-001 -1.029766e+000 0 0 0
1.680490e-001 -1.924010e-001 -1.013024e+000 0 0 0
1.602254e-001 -1.668693e-001 -8.967700e-001 0 0 0
1.455058e-001 -1.669724e-001 -8.811802e-001 0 0 0
1.323464e-001 -1.629021e-001 -8.683190e-001 0 0 0
1.177527e-001 -1.550412e-001 -8.545047e-001 0 0 0
9.832341e-002 -1.452545e-001 -8.415938e-001 0 0 0
7.547647e-002 -1.343647e-001 -8.316176e-001 0 0 0
5.335063e-002 -1.191796e-001 -8.227057e-001 0 0 0
2.711523e-002 -9.984539e-002 -8.160525e-001 0 0 0
4.655913e-003 -7.960732e-002 -8.159066e-001 0 0 0
-2.417186e-002 -5.506555e-002 -8.165359e-001 0 0 0
-4.709217e-002 -2.322599e-002 -8.177327e-001 0 0 0
-5.662613e-002 2.223300e-003 -8.151684e-001 0 0 0
-5.924210e-002 4.070341e-002 -8.057205e-001 0 0 0
-5.414703e-002 5.340713e-002 -8.010952e-001 0 0 0
-4.975910e-002 5.280251e-002 -8.003686e-001 0 0 0
-5.458343e-002 4.217368e-002 -8.089271e-001 0 0 0
-6.439733e-002 2.630758e-002 -8.262723e-001 0 0 0
-7.317523e-002 1.679881e-002 -8.397205e-001 0 0 0
-8.886054e-002 5.468725e-002 -8.512074e-001 0 0 0
-8.307772e-002 8.353324e-002 -8.455058e-001 0 0 0
-7.453377e-002 1.085317e-001 -8.433641e-001 0 0 0
-6.907735e-002 1.293074e-001 -8.472378e-001 0 0 0
-6.239952e-002 1.483225e-001 -8.548208e-001 0 0 0
-5.593599e-002 1.597977e-001 -8.549426e-001 0 0 0
-5.467812e-002 1.571651e-001 -8.494261e-001 0 0 0
-6.396812e-002 1.402067e-001 -8.409182e-001 0 0 0
-8.171041e-002 1.122644e-001 -8.393276e-001 0 0 0
-1.020051e-001 8.806218e-002 -8.432299e-001 0 0 0
-1.220842e-001 7.013093e-002 -8.628393e-001 0 0 0
-1.433151e-001 5.540032e-002 -8.787915e-001 0 0 0
-1.579268e-001 4.697341e-002 -8.986413e-001 0 0 0
-1.713794e-001 4.021012e-002 -9.185020e-001 0 0 0
-1.826505e-001 3.685363e-002 -9.366144e-001 0 0 0
-1.900975e-001 3.771694e-002 -9.498312e-001 0 0 0
-1.965646e-001 4.013746e-002 -9.631558e-001 0 0 0
-2.014387e-001 4.143535e-002 -9.732579e-001 0 0 0
-2.060665e-001 3.983010e-002 -9.837485e-001 0 0 0
-2.079949e-001 3.577530e-002 -9.905173e-001 0 0 0
-2.069856e-001 2.843575e-002 -9.907392e-001 0 0 0
-2.028346e-001 2.047796e-002 -9.859402e-001 0 0 0
-1.947306e-001 9.228116e-003 -9.788811e-001 0 0 0
-1.820486e-001 -6.984834e-003 -9.690505e-001 0 0 0
-4.189200e-002 -4.807152e-003 -1.168029e-001 0 255 0
-3.922000e-002 -4.267282e-003 -1.667285e-001 255 255 0
-8.473357e-001 -9.367720e-002 -3.936964e-001 255 0 0
-8.029939e-001 -8.467742e-002 -4.149757e-001 255 255 0
