ply
format ascii 1.0
element face 0
property list uchar int vertex_indices
element vertex 116
property float x
property float y
property float z
property uchar diffuse_red
property uchar diffuse_green
property uchar diffuse_blue
end_header
-5.703583e-003 -1.334380e-001 -9.501380e-001 0 0 0
-9.347079e-003 -1.329205e-001 -9.473245e-001 0 0 0
-1.128344e-002 -1.308756e-001 -9.451652e-001 0 0 0
-1.425177e-002 -1.284171e-001 -9.437613e-001 0 0 0
-1.965227e-002 -1.240854e-001 -9.410133e-001 0 0 0
-2.681828e-002 -1.170747e-001 -9.377097e-001 0 0 0
-3.605928e-002 -1.066384e-001 -9.332613e-001 0 0 0
-4.102951e-002 -9.338739e-002 -9.307153e-001 0 0 0
-4.470995e-002 -7.606905e-002 -9.340895e-001 0 0 0
-4.676619e-002 -5.439075e-002 -9.394218e-001 0 0 0
-4.530834e-002 -3.099836e-002 -9.487627e-001 0 0 0
-4.256313e-002 -1.697596e-002 -9.581538e-001 0 0 0
-3.681588e-002 -1.035243e-002 -9.718720e-001 0 0 0
-3.094337e-002 -1.190709e-002 -9.853957e-001 0 0 0
-2.608056e-002 -1.914410e-002 -1.002057e+000 0 0 0
-2.247060e-002 -3.106329e-002 -1.018788e+000 0 0 0
-1.915766e-002 -4.552929e-002 -1.033265e+000 0 0 0
-1.619097e-002 -5.978870e-002 -1.045442e+000 0 0 0
-1.603862e-002 -7.202264e-002 -1.053420e+000 0 0 0
-1.857540e-002 -8.372306e-002 -1.061219e+000 0 0 0
-2.557708e-002 -9.191456e-002 -1.066030e+000 0 0 0
-3.468903e-002 -9.643125e-002 -1.068366e+000 0 0 0
-4.724289e-002 -1.016279e-001 -1.066206e+000 0 0 0
-6.214935e-002 -1.039926e-001 -1.059438e+000 0 0 0
-7.603285e-002 -1.038448e-001 -1.050194e+000 0 0 0
-9.011331e-002 -1.000066e-001 -1.035191e+000 0 0 0
-1.004977e-001 -9.325118e-002 -1.017981e+000 0 0 0
-1.080490e-001 -8.258193e-002 -1.000480e+000 0 0 0
-1.149527e-001 -6.967824e-002 -9.777088e-001 0 0 0
-1.196729e-001 -5.352499e-002 -9.555554e-001 0 0 0
-1.217266e-001 -3.594800e-002 -9.320673e-001 0 0 0
-1.207811e-001 -1.897508e-002 -9.114413e-001 0 0 0
-1.159915e-001 -1.928922e-003 -8.912257e-001 0 0 0
-1.071011e-001 1.055780e-002 -8.726702e-001 0 0 0
-9.044989e-002 1.553093e-002 -8.567233e-001 0 0 0
-6.955846e-002 8.294533e-003 -8.569946e-001 0 0 0
-5.049256e-002 -2.241695e-003 -8.604076e-001 0 0 0
-3.891669e-002 -1.714468e-002 -8.652978e-001 0 0 0
-3.392139e-002 -4.115877e-002 -8.640880e-001 0 0 0
-3.206010e-002 -6.705156e-002 -8.585357e-001 0 0 0
-3.626874e-002 -9.025762e-002 -8.537194e-001 0 0 0
-4.837606e-002 -1.053038e-001 -8.503907e-001 0 0 0
-5.901289e-002 -1.083026e-001 -8.509236e-001 0 0 0
-7.317717e-002 -1.012025e-001 -8.587630e-001 0 0 0
-8.977039e-002 -8.891139e-002 -8.748169e-001 0 0 0
-1.044740e-001 -7.541990e-002 -8.946434e-001 0 0 0
-1.157152e-001 -5.832061e-002 -9.100433e-001 0 0 0
-1.244215e-001 -3.539411e-002 -9.132984e-001 0 0 0
-1.285413e-001 -1.535695e-002 -9.174663e-001 0 0 0
-1.312111e-001 -1.477270e-002 -9.349349e-001 0 0 0
-1.319205e-001 -2.887169e-002 -9.586675e-001 0 0 0
-1.274849e-001 -5.457746e-002 -9.888884e-001 0 0 0
-1.151684e-001 -8.268595e-002 -1.018256e+000 0 0 0
-9.652072e-002 -1.079480e-001 -1.043842e+000 0 0 0
-7.484155e-002 -1.290268e-001 -1.062882e+000 0 0 0
-5.132100e-002 -1.458207e-001 -1.077905e+000 0 0 0
-2.756108e-002 -1.611244e-001 -1.087592e+000 0 0 0
-6.852972e-003 -1.729449e-001 -1.091692e+000 0 0 0
1.698299e-002 -1.851523e-001 -1.092813e+000 0 0 0
3.780079e-002 -1.940107e-001 -1.091743e+000 0 0 0
5.931561e-002 -2.008940e-001 -1.091293e+000 0 0 0
7.760111e-002 -2.059583e-001 -1.088376e+000 0 0 0
9.782796e-002 -2.093060e-001 -1.082065e+000 0 0 0
1.179927e-001 -2.077141e-001 -1.072259e+000 0 0 0
1.539634e-001 -2.053736e-001 -1.048438e+000 0 0 0
1.697503e-001 -2.028529e-001 -1.033315e+000 0 0 0
1.448807e-001 -1.639340e-001 -9.000892e-001 0 0 0
1.287459e-001 -1.612179e-001 -8.839131e-001 0 0 0
1.113027e-001 -1.541824e-001 -8.674675e-001 0 0 0
9.444205e-002 -1.449008e-001 -8.520006e-001 0 0 0
7.306393e-002 -1.326894e-001 -8.371390e-001 0 0 0
5.117415e-002 -1.214986e-001 -8.273734e-001 0 0 0
2.723975e-002 -1.049313e-001 -8.164411e-001 0 0 0
3.695076e-003 -8.645290e-002 -8.104938e-001 0 0 0
-1.894201e-002 -6.667335e-002 -8.080499e-001 0 0 0
-4.400504e-002 -4.359424e-002 -8.100735e-001 0 0 0
-6.377182e-002 -1.535943e-002 -8.104236e-001 0 0 0
-7.204063e-002 8.005566e-003 -8.097019e-001 0 0 0
-7.474705e-002 4.251059e-002 -8.018873e-001 0 0 0
-7.051897e-002 5.386469e-002 -7.978998e-001 0 0 0
-6.672219e-002 5.323744e-002 -7.976264e-001 0 0 0
-7.022218e-002 4.368550e-002 -8.049920e-001 0 0 0
-7.780610e-002 2.911268e-002 -8.199354e-001 0 0 0
-8.542848e-002 2.008861e-002 -8.334834e-001 0 0 0
-9.764692e-002 5.391647e-002 -8.455898e-001 0 0 0
-9.238899e-002 7.994259e-002 -8.420882e-001 0 0 0
-8.436789e-002 1.029566e-001 -8.422228e-001 0 0 0
-7.910371e-002 1.216712e-001 -8.471759e-001 0 0 0
-7.265433e-002 1.389021e-001 -8.555631e-001 0 0 0
-6.611451e-002 1.498970e-001 -8.578409e-001 0 0 0
-6.641872e-002 1.468610e-001 -8.503123e-001 0 0 0
-7.561837e-002 1.313834e-001 -8.408072e-001 0 0 0
-9.233440e-002 1.056553e-001 -8.359852e-001 0 0 0
-1.091223e-001 8.434698e-002 -8.387505e-001 0 0 0
-1.273533e-001 6.711590e-002 -8.530705e-001 0 0 0
-1.437685e-001 5.433423e-002 -8.692261e-001 0 0 0
-1.563451e-001 4.619850e-002 -8.883348e-001 0 0 0
-1.672164e-001 3.931114e-002 -9.058891e-001 0 0 0
-1.763801e-001 3.587605e-002 -9.230566e-001 0 0 0
-1.824849e-001 3.647162e-002 -9.366815e-001 0 0 0
-1.875531e-001 3.818067e-002 -9.486923e-001 0 0 0
-1.914554e-001 3.918442e-002 -9.601935e-001 0 0 0
-1.950866e-001 3.729091e-002 -9.701144e-001 0 0 0
-1.968786e-001 3.342683e-002 -9.760009e-001 0 0 0
-1.957716e-001 2.669648e-002 -9.763438e-001 0 0 0
-1.923709e-001 1.960592e-002 -9.709867e-001 0 0 0
-1.858289e-001 9.553463e-003 -9.632229e-001 0 0 0
-1.744674e-001 -4.895329e-003 -9.545783e-001 0 0 0
-1.060173e-001 2.724143e-002 -2.442194e-001 0 255 0
-9.894686e-002 2.554565e-002 -2.936879e-001 255 255 0
-6.140941e-001 -3.283730e-002 -4.725443e-001 255 0 0
-5.709244e-001 -2.492438e-002 -4.964977e-001 255 255 0
4.561715e-001 -5.375796e-001 -1.086146e+000 0 255 0
4.251603e-001 -4.990691e-001 -1.078713e+000 255 255 0
-1.334174e-001 -5.653103e-001 -1.271033e+000 255 0 0
-1.275335e-001 -5.230612e-001 -1.244948e+000 255 255 0
