ply
format ascii 1.0
element face 0
property list uchar int vertex_indices
element vertex 76
property float x
property float y
property float z
property uchar diffuse_red
property uchar diffuse_green
property uchar diffuse_blue
end_header
2.581362e-001 1.069208e-001 -1.164391e+000 0 0 0
2.776572e-001 1.014895e-001 -1.152218e+000 0 0 0
2.859559e-001 9.340958e-002 -1.149019e+000 0 0 0
2.742771e-001 1.296004e-001 -1.159631e+000 0 0 0
2.720545e-001 1.434514e-001 -1.147294e+000 0 0 0
2.606459e-001 1.536341e-001 -1.135692e+000 0 0 0
2.532654e-001 1.596196e-001 -1.125322e+000 0 0 0
2.518669e-001 1.631249e-001 -1.110795e+000 0 0 0
2.535557e-001 1.651434e-001 -1.102029e+000 0 0 0
2.541256e-001 1.661148e-001 -1.093855e+000 0 0 0
2.556705e-001 1.664756e-001 -1.086479e+000 0 0 0
2.563515e-001 1.661046e-001 -1.082730e+000 0 0 0
2.531685e-001 1.624017e-001 -1.079432e+000 0 0 0
2.454665e-001 1.585760e-001 -1.081235e+000 0 0 0
2.336593e-001 1.502990e-001 -1.083518e+000 0 0 0
2.216158e-001 1.416416e-001 -1.087729e+000 0 0 0
2.133327e-001 1.330449e-001 -1.088820e+000 0 0 0
2.069202e-001 1.260468e-001 -1.084571e+000 0 0 0
1.936853e-001 1.204568e-001 -1.088019e+000 0 0 0
1.743751e-001 1.103692e-001 -1.085095e+000 0 0 0
1.495181e-001 9.967841e-002 -1.077968e+000 0 0 0
1.310761e-001 9.346704e-002 -1.062682e+000 0 0 0
1.206128e-001 9.202527e-002 -1.049167e+000 0 0 0
1.129024e-001 9.379765e-002 -1.037759e+000 0 0 0
1.075883e-001 1.036960e-001 -1.032264e+000 0 0 0
1.083553e-001 1.203800e-001 -1.034446e+000 0 0 0
1.120271e-001 1.366296e-001 -1.040749e+000 0 0 0
1.118790e-001 1.450964e-001 -1.051928e+000 0 0 0
1.086031e-001 1.414173e-001 -1.073568e+000 0 0 0
1.023966e-001 1.277298e-001 -1.092624e+000 0 0 0
9.648972e-002 1.071382e-001 -1.109121e+000 0 0 0
9.841087e-002 7.513957e-002 -1.119281e+000 0 0 0
9.942359e-002 6.641754e-002 -1.107033e+000 0 0 0
1.005523e-001 6.183160e-002 -1.087411e+000 0 0 0
9.905611e-002 5.682996e-002 -1.059254e+000 0 0 0
1.010416e-001 5.313084e-002 -1.037660e+000 0 0 0
1.047041e-001 4.084826e-002 -1.010441e+000 0 0 0
1.107770e-001 2.499055e-002 -9.931947e-001 0 0 0
1.194549e-001 5.354404e-003 -9.759427e-001 0 0 0
1.283892e-001 -3.379336e-003 -9.641221e-001 0 0 0
1.297180e-001 6.663265e-003 -9.541553e-001 0 0 0
1.273602e-001 2.714623e-002 -9.520763e-001 0 0 0
1.232246e-001 5.134676e-002 -9.575515e-001 0 0 0
1.172763e-001 7.508733e-002 -9.773042e-001 0 0 0
1.154342e-001 8.968641e-002 -1.000530e+000 0 0 0
1.276431e-001 9.987786e-002 -1.028178e+000 0 0 0
1.437325e-001 1.050420e-001 -1.036644e+000 0 0 0
1.711261e-001 1.124215e-001 -1.031838e+000 0 0 0
2.007767e-001 1.177800e-001 -1.013188e+000 0 0 0
2.243285e-001 1.188537e-001 -9.980404e-001 0 0 0
2.348942e-001 1.223268e-001 -9.889298e-001 0 0 0
2.394457e-001 1.274693e-001 -9.814786e-001 0 0 0
2.386202e-001 1.347762e-001 -9.814150e-001 0 0 0
2.260745e-001 1.423577e-001 -9.885230e-001 0 0 0
2.034990e-001 1.487044e-001 -1.004441e+000 0 0 0
1.798341e-001 1.489920e-001 -1.022522e+000 0 0 0
1.524387e-001 1.414169e-001 -1.043872e+000 0 0 0
1.306708e-001 1.284007e-001 -1.057775e+000 0 0 0
1.155239e-001 1.104518e-001 -1.065263e+000 0 0 0
1.081842e-001 9.071197e-002 -1.067119e+000 0 0 0
1.097102e-001 7.599808e-002 -1.061263e+000 0 0 0
1.178895e-001 6.339492e-002 -1.057839e+000 0 0 0
1.244984e-001 6.093811e-002 -1.053280e+000 0 0 0
1.300346e-001 6.878751e-002 -1.048903e+000 0 0 0
1.375300e-001 8.956854e-002 -1.037271e+000 0 0 0
1.559862e-001 1.143914e-001 -1.023752e+000 0 0 0
1.723605e-001 1.335283e-001 -1.017414e+000 0 0 0
1.800902e-001 1.474898e-001 -1.018385e+000 0 0 0
1.780980e-001 1.559333e-001 -1.028625e+000 0 0 0
1.697829e-001 1.594168e-001 -1.045233e+000 0 0 0
1.558384e-001 1.554758e-001 -1.060724e+000 0 0 0
1.437487e-001 1.461023e-001 -1.077182e+000 0 0 0
2.930953e-002 -1.541680e-003 -3.188332e-002 0 255 0
2.780525e-002 -1.522820e-003 -8.186069e-002 255 255 0
-8.829128e-001 2.805068e-001 -4.743363e-001 255 0 0
-8.446386e-001 2.696819e-001 -5.046333e-001 255 255 0
