ply
format ascii 1.0
element face 0
property list uchar int vertex_indices
element vertex 81
property float x
property float y
property float z
property uchar diffuse_red
property uchar diffuse_green
property uchar diffuse_blue
end_header
2.760617e-001 1.096247e-001 -1.189743e+000 0 0 0
2.949773e-001 1.036836e-001 -1.176777e+000 0 0 0
3.019039e-001 9.496160e-002 -1.171961e+000 0 0 0
2.921108e-001 1.326702e-001 -1.182451e+000 0 0 0
2.861425e-001 1.459226e-001 -1.164616e+000 0 0 0
2.725454e-001 1.553007e-001 -1.149357e+000 0 0 0
2.615243e-001 1.605169e-001 -1.134629e+000 0 0 0
2.581619e-001 1.632969e-001 -1.118801e+000 0 0 0
2.581022e-001 1.645165e-001 -1.106974e+000 0 0 0
2.573247e-001 1.652037e-001 -1.097953e+000 0 0 0
2.576654e-001 1.650514e-001 -1.089712e+000 0 0 0
2.576018e-001 1.643905e-001 -1.084611e+000 0 0 0
2.545416e-001 1.606491e-001 -1.082205e+000 0 0 0
2.464749e-001 1.561753e-001 -1.084274e+000 0 0 0
2.351107e-001 1.484561e-001 -1.085801e+000 0 0 0
2.216211e-001 1.392057e-001 -1.088603e+000 0 0 0
2.142311e-001 1.311175e-001 -1.089694e+000 0 0 0
2.070164e-001 1.236058e-001 -1.085059e+000 0 0 0
1.939428e-001 1.182940e-001 -1.087356e+000 0 0 0
1.742458e-001 1.075474e-001 -1.084158e+000 0 0 0
1.472625e-001 9.665296e-002 -1.072521e+000 0 0 0
1.268553e-001 8.961637e-002 -1.053761e+000 0 0 0
1.149552e-001 8.738814e-002 -1.038111e+000 0 0 0
1.059090e-001 8.876429e-002 -1.024665e+000 0 0 0
1.003200e-001 9.765125e-002 -1.017671e+000 0 0 0
1.010119e-001 1.138334e-001 -1.019108e+000 0 0 0
1.054818e-001 1.300097e-001 -1.026155e+000 0 0 0
1.063925e-001 1.383643e-001 -1.036873e+000 0 0 0
1.050958e-001 1.361231e-001 -1.059542e+000 0 0 0
1.009587e-001 1.232239e-001 -1.082763e+000 0 0 0
9.731050e-002 1.039200e-001 -1.102306e+000 0 0 0
9.985273e-002 7.310658e-002 -1.115016e+000 0 0 0
9.925205e-002 6.400416e-002 -1.099586e+000 0 0 0
9.796886e-002 5.907646e-002 -1.076894e+000 0 0 0
9.347540e-002 5.356054e-002 -1.045602e+000 0 0 0
9.324860e-002 4.949303e-002 -1.022146e+000 0 0 0
9.489479e-002 3.715041e-002 -9.965435e-001 0 0 0
9.918242e-002 2.193474e-002 -9.790470e-001 0 0 0
1.056136e-001 2.956553e-003 -9.623569e-001 0 0 0
1.125222e-001 -4.960448e-003 -9.498495e-001 0 0 0
1.131266e-001 4.136941e-003 -9.401365e-001 0 0 0
1.101168e-001 2.371019e-002 -9.361553e-001 0 0 0
1.069537e-001 4.636156e-002 -9.412295e-001 0 0 0
1.033946e-001 6.893317e-002 -9.608185e-001 0 0 0
1.044120e-001 8.337302e-002 -9.849595e-001 0 0 0
1.191009e-001 9.435792e-002 -1.014656e+000 0 0 0
1.373805e-001 1.002597e-001 -1.025704e+000 0 0 0
1.613696e-001 1.073074e-001 -1.018862e+000 0 0 0
1.918526e-001 1.129567e-001 -1.005159e+000 0 0 0
2.120765e-001 1.130764e-001 -9.906654e-001 0 0 0
2.205416e-001 1.163733e-001 -9.794330e-001 0 0 0
2.250146e-001 1.212225e-001 -9.730175e-001 0 0 0
2.231985e-001 1.282788e-001 -9.724399e-001 0 0 0
2.110832e-001 1.348552e-001 -9.780827e-001 0 0 0
1.919247e-001 1.416887e-001 -9.932009e-001 0 0 0
1.705172e-001 1.423752e-001 -1.010719e+000 0 0 0
1.458247e-001 1.355946e-001 -1.031533e+000 0 0 0
1.242867e-001 1.225808e-001 -1.045710e+000 0 0 0
1.112976e-001 1.059595e-001 -1.053238e+000 0 0 0
1.040456e-001 8.643927e-002 -1.055739e+000 0 0 0
1.063329e-001 7.192987e-002 -1.052353e+000 0 0 0
1.125020e-001 6.019931e-002 -1.048027e+000 0 0 0
1.188673e-001 5.757513e-002 -1.044069e+000 0 0 0
1.235471e-001 6.547778e-002 -1.038053e+000 0 0 0
1.299913e-001 8.488269e-002 -1.026701e+000 0 0 0
1.466654e-001 1.084339e-001 -1.012191e+000 0 0 0
1.619849e-001 1.269618e-001 -1.005038e+000 0 0 0
1.699468e-001 1.405820e-001 -1.006555e+000 0 0 0
1.693574e-001 1.484205e-001 -1.016174e+000 0 0 0
1.631352e-001 1.532606e-001 -1.033999e+000 0 0 0
1.528022e-001 1.508433e-001 -1.052288e+000 0 0 0
1.411197e-001 1.415995e-001 -1.067567e+000 0 0 0
9.712132e-002 8.572492e-002 -1.114193e+000 0 0 0
-3.876505e-002 -6.409124e-003 -2.037802e-001 0 255 0
-3.667286e-002 -6.151640e-003 -2.537357e-001 255 255 0
-7.003343e-001 1.988785e-001 -4.654185e-001 255 0 0
-6.653957e-001 1.904737e-001 -5.001841e-001 255 255 0
6.421614e-001 4.748739e-001 -1.137509e+000 0 255 0
6.067430e-001 4.402982e-001 -1.130433e+000 255 255 0
1.055071e-001 6.229073e-001 -1.377941e+000 255 0 0
1.000289e-001 5.799154e-001 -1.353008e+000 255 255 0
