ply
format ascii 1.0
element face 0
property list uchar int vertex_indices
element vertex 222
property float x
property float y
property float z
property uchar diffuse_red
property uchar diffuse_green
property uchar diffuse_blue
end_header
-2.184105e-001 -7.939117e-002 -9.601039e-001 0 0 0
-2.109820e-001 -8.249668e-002 -9.604735e-001 0 0 0
-2.079288e-001 -8.512695e-002 -9.598259e-001 0 0 0
-2.025707e-001 -8.757307e-002 -9.586194e-001 0 0 0
-1.971840e-001 -8.936767e-002 -9.573436e-001 0 0 0
-1.917732e-001 -9.336145e-002 -9.564662e-001 0 0 0
-1.863636e-001 -9.922353e-002 -9.534419e-001 0 0 0
-1.819717e-001 -1.046355e-001 -9.507206e-001 0 0 0
-1.763410e-001 -1.125712e-001 -9.454854e-001 0 0 0
-1.726743e-001 -1.194848e-001 -9.403503e-001 0 0 0
-1.691638e-001 -1.265533e-001 -9.344642e-001 0 0 0
-1.663487e-001 -1.323580e-001 -9.275806e-001 0 0 0
-1.632773e-001 -1.380859e-001 -9.215614e-001 0 0 0
-1.613480e-001 -1.427296e-001 -9.138016e-001 0 0 0
-1.573479e-001 -1.485209e-001 -9.055569e-001 0 0 0
-1.509626e-001 -1.524345e-001 -8.981310e-001 0 0 0
-1.420891e-001 -1.539848e-001 -8.915482e-001 0 0 0
-1.318303e-001 -1.519583e-001 -8.872710e-001 0 0 0
-1.219898e-001 -1.468879e-001 -8.852748e-001 0 0 0
-1.111259e-001 -1.412900e-001 -8.845809e-001 0 0 0
-1.016496e-001 -1.363282e-001 -8.881495e-001 0 0 0
-9.018265e-002 -1.322347e-001 -8.916305e-001 0 0 0
-8.059676e-002 -1.302178e-001 -8.973881e-001 0 0 0
-7.037400e-002 -1.301603e-001 -9.035587e-001 0 0 0
-6.211882e-002 -1.303418e-001 -9.070117e-001 0 0 0
-5.422563e-002 -1.313842e-001 -9.088271e-001 0 0 0
-4.369791e-002 -1.366592e-001 -9.086753e-001 0 0 0
-3.809250e-002 -1.451306e-001 -9.005817e-001 0 0 0
-3.423233e-002 -1.539791e-001 -8.864358e-001 0 0 0
-3.024798e-002 -1.598284e-001 -8.748633e-001 0 0 0
-3.100500e-002 -1.612867e-001 -8.580230e-001 0 0 0
-3.566929e-002 -1.606089e-001 -8.410439e-001 0 0 0
-4.157975e-002 -1.571561e-001 -8.240737e-001 0 0 0
-5.075836e-002 -1.519537e-001 -8.126165e-001 0 0 0
-5.977222e-002 -1.475829e-001 -8.020503e-001 0 0 0
-7.008836e-002 -1.449943e-001 -7.958710e-001 0 0 0
-8.485389e-002 -1.430395e-001 -7.916258e-001 0 0 0
-9.780597e-002 -1.400540e-001 -7.899272e-001 0 0 0
-1.078521e-001 -1.370004e-001 -7.885666e-001 0 0 0
-1.198353e-001 -1.341802e-001 -7.892364e-001 0 0 0
-1.292225e-001 -1.324013e-001 -7.895637e-001 0 0 0
-1.353327e-001 -1.301767e-001 -7.908302e-001 0 0 0
-1.400251e-001 -1.262569e-001 -7.927932e-001 0 0 0
-1.426934e-001 -1.233191e-001 -7.945344e-001 0 0 0
-1.428867e-001 -1.239120e-001 -7.952668e-001 0 0 0
-1.399423e-001 -1.251588e-001 -7.971555e-001 0 0 0
-1.351707e-001 -1.262973e-001 -7.990695e-001 0 0 0
-1.304667e-001 -1.280410e-001 -8.011889e-001 0 0 0
-1.214246e-001 -1.322705e-001 -8.060638e-001 0 0 0
-1.114483e-001 -1.380997e-001 -8.158787e-001 0 0 0
-9.806555e-002 -1.459400e-001 -8.262833e-001 0 0 0
-8.589696e-002 -1.558557e-001 -8.393532e-001 0 0 0
-7.511061e-002 -1.674251e-001 -8.630407e-001 0 0 0
-6.054686e-002 -1.752088e-001 -8.788883e-001 0 0 0
-2.042166e-002 -1.949759e-001 -9.247328e-001 0 0 0
-7.437281e-003 -1.980007e-001 -9.350209e-001 0 0 0
7.559545e-004 -1.955115e-001 -9.345394e-001 0 0 0
3.741345e-003 -1.891591e-001 -9.295178e-001 0 0 0
-9.632677e-003 -1.453655e-001 -8.708262e-001 0 0 0
-6.559007e-003 -1.260412e-001 -8.526263e-001 0 0 0
4.134103e-005 -1.120286e-001 -8.397315e-001 0 0 0
9.617752e-003 -1.009405e-001 -8.292328e-001 0 0 0
1.816876e-002 -9.491312e-002 -8.220154e-001 0 0 0
2.768419e-002 -8.966650e-002 -8.170388e-001 0 0 0
3.728915e-002 -8.385908e-002 -8.147774e-001 0 0 0
4.603006e-002 -7.779416e-002 -8.164125e-001 0 0 0
5.177567e-002 -6.941638e-002 -8.168646e-001 0 0 0
5.899136e-002 -5.715114e-002 -8.140889e-001 0 0 0
7.186458e-002 -4.703930e-002 -8.084362e-001 0 0 0
8.759922e-002 -4.101556e-002 -8.027051e-001 0 0 0
1.058792e-001 -3.900277e-002 -7.954348e-001 0 0 0
1.422722e-001 -4.407569e-002 -7.751595e-001 0 0 0
1.488552e-001 -5.150421e-002 -7.680140e-001 0 0 0
1.548956e-001 -5.601058e-002 -7.628556e-001 0 0 0
1.579956e-001 -5.989006e-002 -7.546940e-001 0 0 0
1.631295e-001 -6.203766e-002 -7.444206e-001 0 0 0
1.643642e-001 -6.412212e-002 -7.298018e-001 0 0 0
1.659187e-001 -6.283902e-002 -7.121526e-001 0 0 0
1.620101e-001 -5.678247e-002 -6.901349e-001 0 0 0
1.570050e-001 -4.383028e-002 -6.541872e-001 0 0 0
-1.597713e-001 -1.150837e-001 -6.458127e-001 0 0 0
-1.531991e-001 -1.225634e-001 -6.648031e-001 0 0 0
-1.387335e-001 -1.314580e-001 -6.952423e-001 0 0 0
-1.185053e-001 -1.387321e-001 -7.163603e-001 0 0 0
-1.013121e-001 -1.437866e-001 -7.360284e-001 0 0 0
-8.698037e-002 -1.473703e-001 -7.539352e-001 0 0 0
-6.894229e-002 -1.497890e-001 -7.644185e-001 0 0 0
-5.850641e-002 -1.510250e-001 -7.710859e-001 0 0 0
-4.611340e-002 -1.495705e-001 -7.782451e-001 0 0 0
-3.034104e-002 -1.413612e-001 -7.925412e-001 0 0 0
-1.392677e-002 -1.296857e-001 -8.039631e-001 0 0 0
-3.333146e-003 -1.192782e-001 -8.197664e-001 0 0 0
4.964520e-003 -1.089451e-001 -8.270109e-001 0 0 0
9.401109e-003 -9.882134e-002 -8.329462e-001 0 0 0
6.519343e-003 -9.018477e-002 -8.381144e-001 0 0 0
-1.395536e-003 -8.501044e-002 -8.393646e-001 0 0 0
-1.193892e-002 -8.331528e-002 -8.426406e-001 0 0 0
-2.236633e-002 -8.268173e-002 -8.466219e-001 0 0 0
-2.713665e-002 -8.232988e-002 -8.527007e-001 0 0 0
-2.628698e-002 -8.047565e-002 -8.620676e-001 0 0 0
-2.279318e-002 -7.870378e-002 -8.718747e-001 0 0 0
-1.568211e-002 -7.663466e-002 -8.810727e-001 0 0 0
-1.315467e-002 -8.520037e-002 -8.941158e-001 0 0 0
-1.335726e-002 -1.019029e-001 -9.082938e-001 0 0 0
-1.615307e-002 -1.216935e-001 -9.275470e-001 0 0 0
-1.772321e-002 -1.402708e-001 -9.424453e-001 0 0 0
-2.190621e-002 -1.572821e-001 -9.592610e-001 0 0 0
-2.624263e-002 -1.700056e-001 -9.741851e-001 0 0 0
-3.228928e-002 -1.808263e-001 -9.859686e-001 0 0 0
-3.820936e-002 -1.905949e-001 -9.972528e-001 0 0 0
-4.458571e-002 -1.990849e-001 -1.007700e+000 0 0 0
-5.357571e-002 -2.090179e-001 -1.018868e+000 0 0 0
-6.235398e-002 -2.186922e-001 -1.029514e+000 0 0 0
-7.053990e-002 -2.281723e-001 -1.038631e+000 0 0 0
-8.185037e-002 -2.379693e-001 -1.047504e+000 0 0 0
-9.210420e-002 -2.451799e-001 -1.053119e+000 0 0 0
-1.021537e-001 -2.525650e-001 -1.057416e+000 0 0 0
-1.134204e-001 -2.599378e-001 -1.061495e+000 0 0 0
-1.241144e-001 -2.667781e-001 -1.064159e+000 0 0 0
-2.817644e-001 -1.856686e-001 -9.309458e-001 0 0 0
-2.712514e-001 -1.776608e-001 -9.281347e-001 0 0 0
-2.600280e-001 -1.713515e-001 -9.256293e-001 0 0 0
-2.468233e-001 -1.661721e-001 -9.237777e-001 0 0 0
-2.354893e-001 -1.615284e-001 -9.231150e-001 0 0 0
-2.213190e-001 -1.571549e-001 -9.243147e-001 0 0 0
-2.064561e-001 -1.536002e-001 -9.263070e-001 0 0 0
-1.931844e-001 -1.499832e-001 -9.266685e-001 0 0 0
-1.271877e-001 -1.399604e-001 -9.277833e-001 0 0 0
-1.084308e-001 -1.394382e-001 -9.298365e-001 0 0 0
-9.538373e-002 -1.409332e-001 -9.338926e-001 0 0 0
-8.124469e-002 -1.439285e-001 -9.417325e-001 0 0 0
-7.492317e-002 -1.452540e-001 -9.441247e-001 0 0 0
-6.807606e-002 -1.444442e-001 -9.441309e-001 0 0 0
-6.432239e-002 -1.439622e-001 -9.437683e-001 0 0 0
-5.680508e-002 -1.449719e-001 -9.435760e-001 0 0 0
-2.795806e-002 -1.512080e-001 -9.363298e-001 0 0 0
-2.353515e-002 -1.508664e-001 -9.329935e-001 0 0 0
-1.993583e-002 -1.490949e-001 -9.287696e-001 0 0 0
-1.507890e-002 -1.457376e-001 -9.224042e-001 0 0 0
-9.284639e-003 -1.411316e-001 -9.162716e-001 0 0 0
-3.056104e-004 -1.343350e-001 -9.082883e-001 0 0 0
1.159655e-002 -1.258917e-001 -8.998599e-001 0 0 0
2.000736e-002 -1.175673e-001 -8.910547e-001 0 0 0
2.531262e-002 -1.044920e-001 -8.749641e-001 0 0 0
2.701394e-002 -8.946636e-002 -8.531213e-001 0 0 0
2.433792e-002 -7.089511e-002 -8.326430e-001 0 0 0
-2.097332e-002 1.638531e-002 -7.078860e-001 0 0 0
-3.171646e-002 2.928849e-002 -6.786614e-001 0 0 0
1.395905e-001 -3.651759e-002 -6.373166e-001 0 0 0
1.456396e-001 -3.763678e-002 -6.461455e-001 0 0 0
1.488721e-001 -4.229851e-002 -6.609550e-001 0 0 0
1.495781e-001 -4.811697e-002 -6.720679e-001 0 0 0
1.496688e-001 -5.565860e-002 -6.851541e-001 0 0 0
1.478262e-001 -6.286311e-002 -6.984853e-001 0 0 0
1.447881e-001 -6.777445e-002 -7.115817e-001 0 0 0
1.380755e-001 -7.366836e-002 -7.229589e-001 0 0 0
1.278792e-001 -7.757866e-002 -7.316491e-001 0 0 0
1.167115e-001 -8.423298e-002 -7.435896e-001 0 0 0
1.039447e-001 -9.088322e-002 -7.546901e-001 0 0 0
9.217717e-002 -1.004385e-001 -7.665995e-001 0 0 0
7.946663e-002 -1.100600e-001 -7.818710e-001 0 0 0
6.992452e-002 -1.110423e-001 -7.977806e-001 0 0 0
6.236021e-002 -1.037820e-001 -8.158502e-001 0 0 0
4.987190e-002 -8.740539e-002 -8.364993e-001 0 0 0
3.599186e-002 -6.790883e-002 -8.514577e-001 0 0 0
1.726979e-002 -4.920469e-002 -8.629788e-001 0 0 0
-9.357613e-002 -4.695802e-002 -8.510230e-001 0 0 0
-9.695431e-002 -6.038556e-002 -8.427351e-001 0 0 0
-9.136059e-002 -7.246705e-002 -8.378059e-001 0 0 0
-8.081032e-002 -7.686357e-002 -8.345907e-001 0 0 0
-7.128169e-002 -7.204559e-002 -8.324628e-001 0 0 0
-1.943158e-001 -1.660059e-002 -8.058547e-001 0 0 0
-1.977004e-001 -3.522525e-002 -8.035175e-001 0 0 0
-1.916676e-001 -5.133867e-002 -8.025426e-001 0 0 0
-1.071235e-001 -8.981369e-002 -8.317525e-001 0 0 0
-8.722497e-002 -8.840146e-002 -8.396746e-001 0 0 0
-6.715129e-002 -8.062666e-002 -8.419402e-001 0 0 0
-5.135850e-002 -6.596554e-002 -8.417085e-001 0 0 0
-3.666783e-002 -4.813205e-002 -8.377757e-001 0 0 0
-2.833723e-002 -3.064727e-002 -8.311886e-001 0 0 0
-2.601680e-002 -1.212001e-002 -8.231165e-001 0 0 0
-3.108396e-002 -2.452575e-003 -8.204555e-001 0 0 0
-3.828352e-002 9.273095e-004 -8.197843e-001 0 0 0
-5.162903e-002 -4.039310e-003 -8.212713e-001 0 0 0
-6.047039e-002 -1.993019e-002 -8.286931e-001 0 0 0
-6.411892e-002 -3.751332e-002 -8.329850e-001 0 0 0
-5.974141e-002 -4.926478e-002 -8.356839e-001 0 0 0
-5.084498e-002 -4.992331e-002 -8.330374e-001 0 0 0
-4.495120e-002 -3.927139e-002 -8.261187e-001 0 0 0
-4.239500e-002 -2.455737e-002 -8.197650e-001 0 0 0
-7.862638e-002 2.929070e-002 -7.981414e-001 0 0 0
-9.690675e-002 3.755432e-002 -7.996028e-001 0 0 0
-1.181627e-001 -2.626250e-002 -7.768187e-001 0 0 0
-1.044169e-001 -4.841058e-002 -7.820318e-001 0 0 0
-8.902220e-002 -6.801074e-002 -7.986323e-001 0 0 0
-7.183533e-002 -8.372938e-002 -8.197914e-001 0 0 0
-5.329837e-002 -9.359167e-002 -8.517372e-001 0 0 0
-4.470508e-002 -8.881397e-002 -9.847580e-001 0 0 0
-6.819413e-002 -9.819224e-002 -1.002442e+000 0 0 0
-9.668128e-002 -1.028454e-001 -1.011622e+000 0 0 0
-1.555469e-001 -1.541129e-001 -9.841965e-001 0 0 0
-1.544669e-001 -1.559324e-001 -9.814469e-001 0 0 0
-1.507264e-001 -1.554992e-001 -9.800670e-001 0 0 0
-1.489587e-001 -1.528977e-001 -9.793914e-001 0 0 0
-1.484742e-001 -1.468397e-001 -9.802137e-001 0 0 0
-1.479316e-001 -1.392967e-001 -9.815724e-001 0 0 0
-1.460541e-001 -1.304383e-001 -9.828733e-001 0 0 0
-1.471639e-001 -1.252087e-001 -9.800706e-001 0 0 0
-1.449649e-001 -1.198727e-001 -9.760326e-001 0 0 0
-1.470569e-001 -1.156127e-001 -9.698229e-001 0 0 0
-1.499513e-001 -1.024255e-001 -9.565541e-001 0 0 0
-1.536696e-001 -9.947038e-002 -9.452754e-001 0 0 0
-1.567790e-001 -9.563982e-002 -9.384753e-001 0 0 0
-1.573468e-001 -9.176354e-002 -9.346276e-001 0 0 0
-1.598235e-001 -8.850447e-002 -9.335797e-001 0 0 0
-1.648409e-001 -8.688833e-002 -9.347905e-001 0 0 0
-1.698459e-001 -8.644497e-002 -9.332016e-001 0 0 0
-1.737960e-001 -8.562990e-002 -9.296216e-001 0 0 0
1.502642e-002 -1.049518e-003 -3.027111e-003 0 255 0
1.418398e-002 -1.021113e-003 -5.302000e-002 255 255 0
7.493441e-001 -2.520906e-001 -5.625570e-001 255 0 0
7.078429e-001 -2.398520e-001 -5.876142e-001 255 255 0
