ply
format ascii 1.0
element face 0
property list uchar int vertex_indices
element vertex 229
property float x
property float y
property float z
property uchar diffuse_red
property uchar diffuse_green
property uchar diffuse_blue
end_header
-2.498157e-001 -8.565209e-002 -9.866964e-001 0 0 0
-2.335548e-001 -8.878319e-002 -9.773859e-001 0 0 0
-2.362896e-001 -9.101649e-002 -9.844344e-001 0 0 0
-2.291199e-001 -9.323496e-002 -9.819478e-001 0 0 0
-2.220122e-001 -9.474967e-002 -9.794116e-001 0 0 0
-2.149030e-001 -9.855358e-002 -9.773451e-001 0 0 0
-2.070196e-001 -1.042947e-001 -9.725639e-001 0 0 0
-1.995610e-001 -1.101128e-001 -9.681019e-001 0 0 0
-1.925765e-001 -1.172907e-001 -9.618932e-001 0 0 0
-1.859802e-001 -1.237847e-001 -9.547236e-001 0 0 0
-1.797432e-001 -1.306742e-001 -9.468571e-001 0 0 0
-1.735231e-001 -1.365022e-001 -9.375787e-001 0 0 0
-1.680940e-001 -1.418215e-001 -9.295810e-001 0 0 0
-1.633443e-001 -1.461293e-001 -9.202601e-001 0 0 0
-1.560362e-001 -1.512324e-001 -9.099560e-001 0 0 0
-1.471565e-001 -1.543023e-001 -9.009355e-001 0 0 0
-1.358183e-001 -1.546556e-001 -8.929509e-001 0 0 0
-1.250957e-001 -1.517047e-001 -8.875312e-001 0 0 0
-1.132558e-001 -1.458082e-001 -8.836861e-001 0 0 0
-1.031994e-001 -1.396543e-001 -8.827973e-001 0 0 0
-9.365333e-002 -1.339528e-001 -8.850333e-001 0 0 0
-8.312993e-002 -1.290836e-001 -8.886816e-001 0 0 0
-7.506023e-002 -1.268623e-001 -8.930051e-001 0 0 0
-6.537455e-002 -1.257108e-001 -8.988574e-001 0 0 0
-5.842464e-002 -1.255019e-001 -9.025219e-001 0 0 0
-4.999500e-002 -1.259408e-001 -9.030879e-001 0 0 0
-4.035545e-002 -1.298734e-001 -9.026729e-001 0 0 0
-3.174856e-002 -1.374823e-001 -8.918739e-001 0 0 0
-2.537778e-002 -1.449302e-001 -8.771831e-001 0 0 0
-1.878946e-002 -1.496933e-001 -8.623245e-001 0 0 0
-1.702046e-002 -1.505693e-001 -8.467392e-001 0 0 0
-1.850693e-002 -1.500364e-001 -8.298096e-001 0 0 0
-2.222998e-002 -1.468983e-001 -8.140599e-001 0 0 0
-2.864530e-002 -1.429956e-001 -8.034733e-001 0 0 0
-3.578711e-002 -1.394728e-001 -7.942206e-001 0 0 0
-4.447733e-002 -1.378420e-001 -7.888894e-001 0 0 0
-5.743189e-002 -1.374602e-001 -7.859494e-001 0 0 0
-6.967375e-002 -1.355762e-001 -7.848078e-001 0 0 0
-7.959769e-002 -1.333638e-001 -7.842735e-001 0 0 0
-9.069493e-002 -1.322084e-001 -7.852513e-001 0 0 0
-9.999978e-002 -1.313474e-001 -7.860865e-001 0 0 0
-1.067164e-001 -1.296549e-001 -7.877786e-001 0 0 0
-1.115115e-001 -1.266551e-001 -7.895405e-001 0 0 0
-1.151591e-001 -1.240478e-001 -7.918039e-001 0 0 0
-1.154030e-001 -1.246075e-001 -7.923783e-001 0 0 0
-1.125425e-001 -1.257301e-001 -7.941056e-001 0 0 0
-1.082652e-001 -1.263134e-001 -7.956007e-001 0 0 0
-1.040981e-001 -1.276042e-001 -7.977646e-001 0 0 0
-9.641787e-002 -1.306473e-001 -8.023724e-001 0 0 0
-8.778877e-002 -1.356101e-001 -8.111261e-001 0 0 0
-7.719533e-002 -1.415184e-001 -8.211906e-001 0 0 0
-6.824159e-002 -1.501575e-001 -8.355003e-001 0 0 0
-6.057014e-002 -1.605023e-001 -8.566445e-001 0 0 0
-5.011230e-002 -1.669478e-001 -8.725345e-001 0 0 0
-1.702993e-002 -1.836851e-001 -9.181582e-001 0 0 0
-6.055686e-003 -1.852662e-001 -9.253539e-001 0 0 0
2.658089e-003 -1.818814e-001 -9.241907e-001 0 0 0
6.208174e-003 -1.750153e-001 -9.171665e-001 0 0 0
-7.245655e-005 -1.344326e-001 -8.582559e-001 0 0 0
4.625375e-003 -1.170417e-001 -8.405321e-001 0 0 0
1.206395e-002 -1.040393e-001 -8.272205e-001 0 0 0
2.142374e-002 -9.357243e-002 -8.149546e-001 0 0 0
3.091612e-002 -8.773236e-002 -8.049793e-001 0 0 0
3.877609e-002 -8.322324e-002 -8.042479e-001 0 0 0
4.689549e-002 -7.767345e-002 -8.016638e-001 0 0 0
5.440707e-002 -7.204915e-002 -8.026776e-001 0 0 0
5.893007e-002 -6.452775e-002 -8.026930e-001 0 0 0
6.500116e-002 -5.376122e-002 -7.995740e-001 0 0 0
7.595842e-002 -4.466802e-002 -7.939904e-001 0 0 0
9.029150e-002 -3.948828e-002 -7.875517e-001 0 0 0
1.056218e-001 -3.738736e-002 -7.803275e-001 0 0 0
1.377316e-001 -4.186152e-002 -7.601245e-001 0 0 0
1.430270e-001 -4.761850e-002 -7.542906e-001 0 0 0
1.478728e-001 -5.113046e-002 -7.497029e-001 0 0 0
1.509727e-001 -5.443800e-002 -7.429898e-001 0 0 0
1.553698e-001 -5.630584e-002 -7.341747e-001 0 0 0
1.571070e-001 -5.854331e-002 -7.221772e-001 0 0 0
1.586106e-001 -5.800598e-002 -7.079317e-001 0 0 0
1.561159e-001 -5.413993e-002 -6.903458e-001 0 0 0
1.537242e-001 -4.564125e-002 -6.639640e-001 0 0 0
-1.004585e-001 -1.175653e-001 -6.593938e-001 0 0 0
-9.778868e-002 -1.234433e-001 -6.749921e-001 0 0 0
-9.001992e-002 -1.301522e-001 -7.005963e-001 0 0 0
-7.514052e-002 -1.350773e-001 -7.185771e-001 0 0 0
-6.286607e-002 -1.386733e-001 -7.368111e-001 0 0 0
-5.254851e-002 -1.408429e-001 -7.513513e-001 0 0 0
-3.797386e-002 -1.415176e-001 -7.600496e-001 0 0 0
-2.952087e-002 -1.419403e-001 -7.657707e-001 0 0 0
-1.970942e-002 -1.399596e-001 -7.726567e-001 0 0 0
-7.513661e-003 -1.318206e-001 -7.836244e-001 0 0 0
4.689232e-003 -1.206806e-001 -7.944337e-001 0 0 0
1.193799e-002 -1.107375e-001 -8.087653e-001 0 0 0
1.787666e-002 -1.011646e-001 -8.152677e-001 0 0 0
2.040386e-002 -9.169540e-002 -8.211745e-001 0 0 0
1.745182e-002 -8.448470e-002 -8.254461e-001 0 0 0
9.249850e-003 -8.018682e-002 -8.274211e-001 0 0 0
-1.028311e-004 -7.943000e-002 -8.309938e-001 0 0 0
-1.043653e-002 -7.928509e-002 -8.356447e-001 0 0 0
-1.647695e-002 -7.890196e-002 -8.430742e-001 0 0 0
-1.694607e-002 -7.713115e-002 -8.519008e-001 0 0 0
-1.518154e-002 -7.504052e-002 -8.611841e-001 0 0 0
-1.029225e-002 -7.252031e-002 -8.710311e-001 0 0 0
-9.408422e-003 -8.026668e-002 -8.843770e-001 0 0 0
-1.157911e-002 -9.535760e-002 -8.998014e-001 0 0 0
-1.610523e-002 -1.144307e-001 -9.203430e-001 0 0 0
-1.988906e-002 -1.318925e-001 -9.374398e-001 0 0 0
-2.586250e-002 -1.489634e-001 -9.561957e-001 0 0 0
-3.226890e-002 -1.624371e-001 -9.736203e-001 0 0 0
-3.974495e-002 -1.738259e-001 -9.879423e-001 0 0 0
-4.775703e-002 -1.842764e-001 -1.001538e+000 0 0 0
-5.663125e-002 -1.947509e-001 -1.015998e+000 0 0 0
-6.816008e-002 -2.066086e-001 -1.031640e+000 0 0 0
-7.751101e-002 -2.180934e-001 -1.045058e+000 0 0 0
-9.024519e-002 -2.299814e-001 -1.059496e+000 0 0 0
-1.043095e-001 -2.435087e-001 -1.073325e+000 0 0 0
-1.170102e-001 -2.526606e-001 -1.082508e+000 0 0 0
-1.294391e-001 -2.632638e-001 -1.090526e+000 0 0 0
-1.416475e-001 -2.725112e-001 -1.097447e+000 0 0 0
-1.561726e-001 -2.813701e-001 -1.103614e+000 0 0 0
-3.112127e-001 -2.052048e-001 -9.574495e-001 0 0 0
-2.973781e-001 -1.948059e-001 -9.521900e-001 0 0 0
-2.817748e-001 -1.866049e-001 -9.470343e-001 0 0 0
-2.661404e-001 -1.792407e-001 -9.437133e-001 0 0 0
-2.510942e-001 -1.728017e-001 -9.415753e-001 0 0 0
-2.367372e-001 -1.672900e-001 -9.417523e-001 0 0 0
-2.199460e-001 -1.621767e-001 -9.420259e-001 0 0 0
-2.050423e-001 -1.572573e-001 -9.408991e-001 0 0 0
-1.294639e-001 -1.406712e-001 -9.325927e-001 0 0 0
-1.125546e-001 -1.385577e-001 -9.347688e-001 0 0 0
-9.804904e-002 -1.386528e-001 -9.375695e-001 0 0 0
-8.441195e-002 -1.406308e-001 -9.440064e-001 0 0 0
-7.793304e-002 -1.414685e-001 -9.451348e-001 0 0 0
-7.089611e-002 -1.399998e-001 -9.446092e-001 0 0 0
-6.680777e-002 -1.393074e-001 -9.435180e-001 0 0 0
-5.931754e-002 -1.397533e-001 -9.420591e-001 0 0 0
-2.835813e-002 -1.430419e-001 -9.305845e-001 0 0 0
-2.338032e-002 -1.421582e-001 -9.264044e-001 0 0 0
-1.882733e-002 -1.400449e-001 -9.210071e-001 0 0 0
-1.320167e-002 -1.364761e-001 -9.137778e-001 0 0 0
-6.589410e-003 -1.315033e-001 -9.059861e-001 0 0 0
2.994147e-003 -1.243720e-001 -8.968542e-001 0 0 0
1.450847e-002 -1.157012e-001 -8.871964e-001 0 0 0
2.394791e-002 -1.073430e-001 -8.760602e-001 0 0 0
3.030234e-002 -9.554782e-002 -8.596822e-001 0 0 0
3.363454e-002 -8.215913e-002 -8.383507e-001 0 0 0
3.359331e-002 -6.673089e-002 -8.180672e-001 0 0 0
6.781863e-003 -3.348675e-005 -7.066648e-001 0 0 0
3.507065e-004 8.820966e-003 -6.832186e-001 0 0 0
1.412312e-001 -4.131020e-002 -6.512099e-001 0 0 0
1.454717e-001 -4.147357e-002 -6.581370e-001 0 0 0
1.474109e-001 -4.442843e-002 -6.690240e-001 0 0 0
1.478085e-001 -4.845537e-002 -6.777063e-001 0 0 0
1.474356e-001 -5.386579e-002 -6.877928e-001 0 0 0
1.456235e-001 -5.903545e-002 -6.982741e-001 0 0 0
1.427290e-001 -6.258859e-002 -7.086984e-001 0 0 0
1.370672e-001 -6.709632e-002 -7.180428e-001 0 0 0
1.290591e-001 -7.050697e-002 -7.254688e-001 0 0 0
1.193092e-001 -7.591051e-002 -7.355451e-001 0 0 0
1.088762e-001 -8.176639e-002 -7.452116e-001 0 0 0
9.854277e-002 -8.991837e-002 -7.559421e-001 0 0 0
8.720248e-002 -9.825922e-002 -7.697635e-001 0 0 0
7.808725e-002 -9.953042e-002 -7.844727e-001 0 0 0
6.876938e-002 -9.303681e-002 -8.028337e-001 0 0 0
5.646162e-002 -7.989738e-002 -8.211345e-001 0 0 0
4.100612e-002 -6.289943e-002 -8.369135e-001 0 0 0
2.273150e-002 -4.677626e-002 -8.491694e-001 0 0 0
-8.199732e-002 -5.012144e-002 -8.449370e-001 0 0 0
-8.283512e-002 -6.303083e-002 -8.371789e-001 0 0 0
-7.582264e-002 -7.382836e-002 -8.318057e-001 0 0 0
-6.525045e-002 -7.733323e-002 -8.281202e-001 0 0 0
-5.516065e-002 -7.248691e-002 -8.249947e-001 0 0 0
-1.767227e-001 -2.729060e-002 -8.061944e-001 0 0 0
-1.789217e-001 -4.525870e-002 -8.040234e-001 0 0 0
-1.707544e-001 -6.056911e-002 -8.026261e-001 0 0 0
-9.107086e-002 -9.078554e-002 -8.282737e-001 0 0 0
-7.087317e-002 -8.833376e-002 -8.334392e-001 0 0 0
-5.360001e-002 -7.978152e-002 -8.350074e-001 0 0 0
-3.786592e-002 -6.568490e-002 -8.330909e-001 0 0 0
-2.469800e-002 -4.901933e-002 -8.281327e-001 0 0 0
-1.632618e-002 -3.320162e-002 -8.210710e-001 0 0 0
-1.395826e-002 -1.665570e-002 -8.132301e-001 0 0 0
-1.804701e-002 -8.584709e-003 -8.107092e-001 0 0 0
-2.561947e-002 -5.524498e-003 -8.107283e-001 0 0 0
-3.751234e-002 -1.047278e-002 -8.128720e-001 0 0 0
-4.703188e-002 -2.477795e-002 -8.209971e-001 0 0 0
-5.048509e-002 -4.064407e-002 -8.257736e-001 0 0 0
-4.559685e-002 -5.134801e-002 -8.277104e-001 0 0 0
-3.716587e-002 -5.142297e-002 -8.244719e-001 0 0 0
-3.064935e-002 -4.183944e-002 -8.170798e-001 0 0 0
-2.758609e-002 -2.887669e-002 -8.104179e-001 0 0 0
-6.202705e-002 1.805553e-002 -7.922851e-001 0 0 0
-7.959404e-002 2.497826e-002 -7.940912e-001 0 0 0
-9.091638e-002 -3.579903e-002 -7.727056e-001 0 0 0
-7.886260e-002 -5.421202e-002 -7.782802e-001 0 0 0
-6.538045e-002 -7.118856e-002 -7.929865e-001 0 0 0
-5.227673e-002 -8.383099e-002 -8.129583e-001 0 0 0
-4.033199e-002 -9.102400e-002 -8.439279e-001 0 0 0
-5.590557e-002 -8.346044e-002 -9.887807e-001 0 0 0
-8.586344e-002 -9.413085e-002 -1.015168e+000 0 0 0
-1.171163e-001 -1.009994e-001 -1.028756e+000 0 0 0
-1.761584e-001 -1.592107e-001 -1.005455e+000 0 0 0
-1.749316e-001 -1.611156e-001 -1.002064e+000 0 0 0
-1.711559e-001 -1.601617e-001 -1.000551e+000 0 0 0
-1.678676e-001 -1.570965e-001 -9.983161e-001 0 0 0
-1.678433e-001 -1.510807e-001 -9.991113e-001 0 0 0
-1.687313e-001 -1.426719e-001 -1.002156e+000 0 0 0
-1.671462e-001 -1.337038e-001 -1.003330e+000 0 0 0
-1.678056e-001 -1.282734e-001 -9.999025e-001 0 0 0
-1.640443e-001 -1.223822e-001 -9.936795e-001 0 0 0
-1.653833e-001 -1.181445e-001 -9.870549e-001 0 0 0
-1.636500e-001 -1.047872e-001 -9.687186e-001 0 0 0
-1.669161e-001 -1.021151e-001 -9.581863e-001 0 0 0
-1.681377e-001 -9.870861e-002 -9.498563e-001 0 0 0
-1.683711e-001 -9.458220e-002 -9.459962e-001 0 0 0
-1.707049e-001 -9.165043e-002 -9.448165e-001 0 0 0
-1.770665e-001 -9.025558e-002 -9.469787e-001 0 0 0
-1.826224e-001 -9.012621e-002 -9.470106e-001 0 0 0
-1.859739e-001 -8.967668e-002 -9.422145e-001 0 0 0
-3.208330e-002 -8.828565e-002 -8.776412e-001 0 0 0
-2.432383e-001 -8.538917e-002 -9.856283e-001 0 0 0
-1.622629e-001 -1.118267e-001 -9.787948e-001 0 0 0
9.092741e-002 -4.227959e-002 -3.015846e-001 0 255 0
8.318941e-002 -3.874491e-002 -3.508556e-001 255 255 0
5.000202e-001 -1.561641e-001 -6.114408e-001 255 0 0
4.615684e-001 -1.461874e-001 -6.418041e-001 255 255 0
-6.068833e-001 -4.724883e-001 -9.507167e-001 0 255 0
-5.716360e-001 -4.372229e-001 -9.469775e-001 255 255 0
-1.181283e-001 -5.642645e-001 -1.252563e+000 255 0 0
-1.115831e-001 -5.223822e-001 -1.226048e+000 255 255 0
