ply
format ascii 1.0
element face 0
property list uchar int vertex_indices
element vertex 109
property float x
property float y
property float z
property uchar diffuse_red
property uchar diffuse_green
property uchar diffuse_blue
end_header
-2.037393e-002 1.130983e-001 -8.459601e-001 0 0 0
-2.272768e-002 1.156831e-001 -8.473579e-001 0 0 0
-2.374464e-002 1.192777e-001 -8.480051e-001 0 0 0
-2.345785e-002 1.283041e-001 -8.476571e-001 0 0 0
-2.249727e-002 1.370175e-001 -8.444830e-001 0 0 0
-1.940735e-002 1.457364e-001 -8.410807e-001 0 0 0
-7.133208e-003 1.526247e-001 -8.377421e-001 0 0 0
6.108103e-003 1.536435e-001 -8.344291e-001 0 0 0
2.017268e-002 1.513966e-001 -8.285467e-001 0 0 0
3.111345e-002 1.473761e-001 -8.241561e-001 0 0 0
3.902025e-002 1.420395e-001 -8.192329e-001 0 0 0
4.679283e-002 1.336319e-001 -8.126717e-001 0 0 0
5.363089e-002 1.236843e-001 -8.081745e-001 0 0 0
5.966089e-002 1.096019e-001 -8.022124e-001 0 0 0
6.246899e-002 9.451631e-002 -7.946840e-001 0 0 0
6.291055e-002 7.832017e-002 -7.891834e-001 0 0 0
6.247418e-002 6.380547e-002 -7.838875e-001 0 0 0
6.116966e-002 5.052592e-002 -7.818257e-001 0 0 0
5.962190e-002 4.022201e-002 -7.781734e-001 0 0 0
5.892303e-002 3.354506e-002 -7.750936e-001 0 0 0
5.832115e-002 3.181544e-002 -7.709087e-001 0 0 0
5.775170e-002 3.659284e-002 -7.667719e-001 0 0 0
5.638086e-002 4.972360e-002 -7.613724e-001 0 0 0
5.272296e-002 6.750300e-002 -7.605454e-001 0 0 0
4.406905e-002 8.952252e-002 -7.628016e-001 0 0 0
3.513159e-002 1.054389e-001 -7.665454e-001 0 0 0
2.468063e-002 1.203586e-001 -7.719239e-001 0 0 0
1.535923e-002 1.332182e-001 -7.791242e-001 0 0 0
9.624752e-003 1.438185e-001 -7.891974e-001 0 0 0
4.141247e-003 1.526171e-001 -8.022156e-001 0 0 0
-1.455992e-003 1.577815e-001 -8.185843e-001 0 0 0
-7.265523e-003 1.600200e-001 -8.303435e-001 0 0 0
-1.307030e-002 1.601039e-001 -8.408460e-001 0 0 0
-1.908254e-002 1.573917e-001 -8.485590e-001 0 0 0
-2.256549e-002 1.527373e-001 -8.575943e-001 0 0 0
-2.518970e-002 1.467522e-001 -8.659492e-001 0 0 0
-2.842563e-002 1.399103e-001 -8.735442e-001 0 0 0
-5.387762e-002 1.349924e-001 -8.712813e-001 0 0 0
-6.263637e-002 1.360665e-001 -8.594987e-001 0 0 0
-6.724340e-002 1.366396e-001 -8.514831e-001 0 0 0
-6.827828e-002 1.378007e-001 -8.445714e-001 0 0 0
-6.434652e-002 1.406322e-001 -8.413880e-001 0 0 0
-5.978482e-002 1.412524e-001 -8.371803e-001 0 0 0
-5.240488e-002 1.412797e-001 -8.333458e-001 0 0 0
-4.131544e-002 1.420767e-001 -8.287386e-001 0 0 0
-2.805359e-002 1.430284e-001 -8.227139e-001 0 0 0
-1.369507e-002 1.421876e-001 -8.133315e-001 0 0 0
-2.153370e-003 1.408877e-001 -8.012561e-001 0 0 0
3.960563e-003 1.375653e-001 -7.878907e-001 0 0 0
8.844837e-003 1.336120e-001 -7.735694e-001 0 0 0
1.156878e-002 1.297123e-001 -7.632497e-001 0 0 0
1.316137e-002 1.227709e-001 -7.516608e-001 0 0 0
1.275228e-002 1.134453e-001 -7.433124e-001 0 0 0
7.580245e-003 1.067710e-001 -7.415436e-001 0 0 0
-9.762750e-005 1.049475e-001 -7.404221e-001 0 0 0
-1.255421e-002 1.070047e-001 -7.415224e-001 0 0 0
-2.545830e-002 1.114267e-001 -7.438277e-001 0 0 0
-3.033848e-002 1.133491e-001 -7.487480e-001 0 0 0
-3.567510e-002 1.172764e-001 -7.574415e-001 0 0 0
-3.880175e-002 1.211402e-001 -7.622123e-001 0 0 0
-3.432191e-002 1.264175e-001 -7.667816e-001 0 0 0
-2.582770e-002 1.315515e-001 -7.724031e-001 0 0 0
-1.415823e-002 1.368675e-001 -7.812698e-001 0 0 0
-3.978226e-003 1.401234e-001 -7.922845e-001 0 0 0
5.741889e-003 1.406333e-001 -7.993398e-001 0 0 0
1.412359e-002 1.390853e-001 -8.087277e-001 0 0 0
1.450091e-002 1.372405e-001 -8.206322e-001 0 0 0
1.527390e-002 1.342832e-001 -8.233826e-001 0 0 0
1.317747e-002 1.343527e-001 -8.217377e-001 0 0 0
1.049533e-002 1.344565e-001 -8.185612e-001 0 0 0
3.894238e-003 1.352409e-001 -8.174832e-001 0 0 0
-5.012402e-004 1.333196e-001 -8.195829e-001 0 0 0
-2.196258e-003 1.279123e-001 -8.290398e-001 0 0 0
-4.816164e-003 1.174957e-001 -8.473876e-001 0 0 0
-3.836914e-003 1.106824e-001 -8.568968e-001 0 0 0
8.661665e-005 1.086182e-001 -8.602510e-001 0 0 0
2.795005e-003 1.089143e-001 -8.606391e-001 0 0 0
5.465136e-003 1.088714e-001 -8.590581e-001 0 0 0
9.562843e-003 1.082705e-001 -8.584365e-001 0 0 0
8.729013e-003 1.083463e-001 -8.578814e-001 0 0 0
7.050786e-003 1.092103e-001 -8.585265e-001 0 0 0
6.912638e-003 1.092394e-001 -8.583137e-001 0 0 0
7.894411e-003 1.090460e-001 -8.585599e-001 0 0 0
7.554176e-003 1.091487e-001 -8.582800e-001 0 0 0
4.630585e-003 1.096437e-001 -8.564308e-001 0 0 0
3.608660e-003 1.095734e-001 -8.577003e-001 0 0 0
4.823815e-003 1.094771e-001 -8.574637e-001 0 0 0
1.453004e-003 1.093280e-001 -8.547616e-001 0 0 0
-1.193914e-003 1.087396e-001 -8.542857e-001 0 0 0
-7.572255e-004 1.088998e-001 -8.550559e-001 0 0 0
4.786870e-003 1.093384e-001 -8.571349e-001 0 0 0
4.410838e-003 1.089014e-001 -8.575578e-001 0 0 0
3.012033e-003 1.089692e-001 -8.565941e-001 0 0 0
3.628434e-003 1.092528e-001 -8.565951e-001 0 0 0
3.411909e-003 1.081159e-001 -8.545695e-001 0 0 0
2.316840e-003 1.074039e-001 -8.546655e-001 0 0 0
-5.627639e-003 1.087118e-001 -8.508775e-001 0 0 0
-1.511851e-002 1.112936e-001 -8.462765e-001 0 0 0
-2.066162e-002 1.121576e-001 -8.429549e-001 0 0 0
-2.406284e-002 1.117310e-001 -8.427488e-001 0 0 0
-2.540799e-002 1.110480e-001 -8.416582e-001 0 0 0
-2.610229e-002 1.114902e-001 -8.431807e-001 0 0 0
-2.896225e-002 1.107080e-001 -8.400388e-001 0 0 0
-3.087196e-002 1.105905e-001 -8.398554e-001 0 0 0
-3.065253e-002 1.095312e-001 -8.385532e-001 0 0 0
9.110920e-002 1.421332e-002 -3.350246e-002 0 255 0
8.540355e-002 1.335644e-002 -8.316846e-002 255 255 0
8.005255e-001 1.594168e-001 -4.417853e-001 255 0 0
7.582165e-001 1.505450e-001 -4.669096e-001 255 255 0
