ply
format ascii 1.0
element face 0
property list uchar int vertex_indices
element vertex 113
property float x
property float y
property float z
property uchar diffuse_red
property uchar diffuse_green
property uchar diffuse_blue
end_header
-2.287169e-002 1.142178e-001 -8.486564e-001 0 0 0
-2.567576e-002 1.171379e-001 -8.509729e-001 0 0 0
-2.665802e-002 1.214809e-001 -8.513473e-001 0 0 0
-2.636207e-002 1.295863e-001 -8.503125e-001 0 0 0
-2.543537e-002 1.374964e-001 -8.465209e-001 0 0 0
-2.014289e-002 1.463544e-001 -8.402048e-001 0 0 0
-1.052994e-002 1.522039e-001 -8.366092e-001 0 0 0
6.771022e-003 1.517690e-001 -8.287249e-001 0 0 0
2.170092e-002 1.483604e-001 -8.205351e-001 0 0 0
3.259824e-002 1.437990e-001 -8.144688e-001 0 0 0
4.249369e-002 1.375977e-001 -8.070996e-001 0 0 0
5.051613e-002 1.292842e-001 -7.999092e-001 0 0 0
5.781102e-002 1.192101e-001 -7.940076e-001 0 0 0
6.547204e-002 1.053596e-001 -7.866770e-001 0 0 0
6.908191e-002 9.077142e-002 -7.792198e-001 0 0 0
7.085039e-002 7.535419e-002 -7.735807e-001 0 0 0
7.094812e-002 6.190110e-002 -7.695458e-001 0 0 0
7.021623e-002 4.947945e-002 -7.675312e-001 0 0 0
6.945545e-002 4.013512e-002 -7.643283e-001 0 0 0
6.934471e-002 3.385364e-002 -7.614190e-001 0 0 0
6.921329e-002 3.211125e-002 -7.574488e-001 0 0 0
6.965466e-002 3.638379e-002 -7.523230e-001 0 0 0
6.852472e-002 4.817865e-002 -7.470495e-001 0 0 0
6.554235e-002 6.470970e-002 -7.450292e-001 0 0 0
5.730334e-002 8.476051e-002 -7.477384e-001 0 0 0
4.727376e-002 9.992712e-002 -7.522118e-001 0 0 0
3.703209e-002 1.143036e-001 -7.586095e-001 0 0 0
2.636166e-002 1.272880e-001 -7.667802e-001 0 0 0
1.795693e-002 1.382660e-001 -7.780168e-001 0 0 0
1.093131e-002 1.479309e-001 -7.931313e-001 0 0 0
3.017031e-003 1.546275e-001 -8.112585e-001 0 0 0
-5.463524e-003 1.579526e-001 -8.257645e-001 0 0 0
-1.362743e-002 1.592919e-001 -8.383734e-001 0 0 0
-2.178557e-002 1.580241e-001 -8.490282e-001 0 0 0
-2.709522e-002 1.546118e-001 -8.599719e-001 0 0 0
-3.216791e-002 1.492515e-001 -8.721236e-001 0 0 0
-3.595945e-002 1.439552e-001 -8.807260e-001 0 0 0
-6.357213e-002 1.388090e-001 -8.830465e-001 0 0 0
-7.143320e-002 1.390789e-001 -8.721436e-001 0 0 0
-7.470103e-002 1.398523e-001 -8.617767e-001 0 0 0
-7.457187e-002 1.406929e-001 -8.536890e-001 0 0 0
-6.969515e-002 1.430990e-001 -8.495420e-001 0 0 0
-6.263057e-002 1.431135e-001 -8.426940e-001 0 0 0
-5.360305e-002 1.425602e-001 -8.365744e-001 0 0 0
-4.044668e-002 1.423085e-001 -8.291535e-001 0 0 0
-2.666313e-002 1.421688e-001 -8.212442e-001 0 0 0
-1.005634e-002 1.399660e-001 -8.084238e-001 0 0 0
2.802220e-003 1.372776e-001 -7.946818e-001 0 0 0
1.307228e-002 1.325146e-001 -7.770327e-001 0 0 0
1.909558e-002 1.275282e-001 -7.625710e-001 0 0 0
2.449957e-002 1.229799e-001 -7.502884e-001 0 0 0
2.805564e-002 1.157517e-001 -7.380578e-001 0 0 0
2.888346e-002 1.068446e-001 -7.303910e-001 0 0 0
2.456906e-002 1.006011e-001 -7.286281e-001 0 0 0
1.690865e-002 9.904666e-002 -7.291024e-001 0 0 0
4.996593e-003 1.013157e-001 -7.305268e-001 0 0 0
-8.236797e-003 1.064270e-001 -7.343967e-001 0 0 0
-1.431504e-002 1.085800e-001 -7.403819e-001 0 0 0
-2.061104e-002 1.127056e-001 -7.492023e-001 0 0 0
-2.533183e-002 1.168290e-001 -7.554112e-001 0 0 0
-2.170045e-002 1.223191e-001 -7.599902e-001 0 0 0
-1.423313e-002 1.274194e-001 -7.650853e-001 0 0 0
-4.171952e-003 1.325686e-001 -7.732384e-001 0 0 0
5.343196e-003 1.348489e-001 -7.808685e-001 0 0 0
1.269508e-002 1.365361e-001 -7.901195e-001 0 0 0
1.926775e-002 1.353919e-001 -7.996589e-001 0 0 0
1.800160e-002 1.344490e-001 -8.126980e-001 0 0 0
1.788769e-002 1.318181e-001 -8.161559e-001 0 0 0
1.642252e-002 1.317974e-001 -8.144783e-001 0 0 0
1.410103e-002 1.316888e-001 -8.114922e-001 0 0 0
7.730931e-003 1.328519e-001 -8.109254e-001 0 0 0
3.520098e-003 1.312428e-001 -8.129878e-001 0 0 0
-8.538527e-004 1.269643e-001 -8.256472e-001 0 0 0
-5.887337e-003 1.186831e-001 -8.452976e-001 0 0 0
-7.959270e-003 1.121885e-001 -8.596725e-001 0 0 0
-4.980170e-003 1.104363e-001 -8.630869e-001 0 0 0
-1.386342e-003 1.104920e-001 -8.626607e-001 0 0 0
1.439736e-003 1.103064e-001 -8.605457e-001 0 0 0
6.357645e-003 1.092808e-001 -8.585826e-001 0 0 0
5.343873e-003 1.095049e-001 -8.585201e-001 0 0 0
3.297499e-003 1.105250e-001 -8.595268e-001 0 0 0
3.237267e-003 1.105143e-001 -8.593541e-001 0 0 0
4.232576e-003 1.102180e-001 -8.595194e-001 0 0 0
3.892763e-003 1.103090e-001 -8.593417e-001 0 0 0
2.558230e-004 1.110103e-001 -8.584823e-001 0 0 0
2.672336e-004 1.108857e-001 -8.590121e-001 0 0 0
1.061799e-003 1.107120e-001 -8.587994e-001 0 0 0
-1.563068e-003 1.103305e-001 -8.560859e-001 0 0 0
-4.402420e-003 1.101154e-001 -8.557727e-001 0 0 0
-3.972592e-003 1.102503e-001 -8.566468e-001 0 0 0
9.695694e-004 1.105636e-001 -8.585152e-001 0 0 0
8.797598e-004 1.102008e-001 -8.585079e-001 0 0 0
-2.501213e-004 1.103528e-001 -8.576711e-001 0 0 0
3.054676e-004 1.103807e-001 -8.577126e-001 0 0 0
4.324802e-004 1.092386e-001 -8.555711e-001 0 0 0
-6.516902e-004 1.085401e-001 -8.554849e-001 0 0 0
-7.678564e-003 1.096573e-001 -8.515794e-001 0 0 0
-1.727788e-002 1.123515e-001 -8.484028e-001 0 0 0
-2.291681e-002 1.131060e-001 -8.461774e-001 0 0 0
-2.619392e-002 1.128328e-001 -8.457066e-001 0 0 0
-2.742258e-002 1.121244e-001 -8.447343e-001 0 0 0
-2.805156e-002 1.125885e-001 -8.456440e-001 0 0 0
-3.043214e-002 1.118627e-001 -8.433969e-001 0 0 0
-3.259253e-002 1.117363e-001 -8.429928e-001 0 0 0
-3.231596e-002 1.106680e-001 -8.416639e-001 0 0 0
1.787068e-001 -4.622058e-004 -1.474848e-001 0 255 0
1.661796e-001 -1.213851e-004 -1.958889e-001 255 255 0
6.071815e-001 1.064733e-001 -4.387599e-001 255 0 0
5.686134e-001 9.951843e-002 -4.698103e-001 255 255 0
-3.546093e-001 4.085831e-001 -8.616509e-001 0 255 0
-3.220464e-001 3.711042e-001 -8.557353e-001 255 255 0
5.226791e-002 4.709745e-001 -1.066510e+000 255 0 0
5.520537e-002 4.282387e-001 -1.040722e+000 255 255 0
