ply
format ascii 1.0
element face 0
property list uchar int vertex_indices
element vertex 106
property float x
property float y
property float z
property uchar diffuse_red
property uchar diffuse_green
property uchar diffuse_blue
end_header
-8.536754e-003 5.266132e-002 -8.819231e-001 0 0 0
-1.096882e-002 4.425937e-002 -8.804037e-001 0 0 0
-1.394798e-002 3.643936e-002 -8.787869e-001 0 0 0
-1.787047e-002 2.694819e-002 -8.767627e-001 0 0 0
-1.945308e-002 1.696644e-002 -8.769694e-001 0 0 0
-2.079153e-002 1.086636e-002 -8.818133e-001 0 0 0
-2.337417e-002 9.514004e-003 -8.884914e-001 0 0 0
-2.737563e-002 1.360231e-002 -9.001027e-001 0 0 0
-3.100135e-002 2.280281e-002 -9.085430e-001 0 0 0
-3.543510e-002 3.300304e-002 -9.218927e-001 0 0 0
-4.144235e-002 4.206790e-002 -9.319634e-001 0 0 0
-4.931101e-002 4.910628e-002 -9.393064e-001 0 0 0
-5.779169e-002 5.443213e-002 -9.445806e-001 0 0 0
-6.894603e-002 5.759045e-002 -9.466784e-001 0 0 0
-7.982343e-002 5.519956e-002 -9.438571e-001 0 0 0
-8.618353e-002 4.946021e-002 -9.374443e-001 0 0 0
-8.900193e-002 4.174048e-002 -9.260279e-001 0 0 0
-8.835222e-002 3.562979e-002 -9.140851e-001 0 0 0
-8.441755e-002 3.510350e-002 -9.073583e-001 0 0 0
-8.268404e-002 3.721320e-002 -9.027557e-001 0 0 0
-6.964876e-002 4.730595e-002 -8.958291e-001 0 0 0
-5.180565e-002 5.762737e-002 -8.886542e-001 0 0 0
-3.618540e-002 6.524133e-002 -8.866358e-001 0 0 0
-1.774571e-002 7.214451e-002 -8.818163e-001 0 0 0
-1.089474e-002 7.647650e-002 -8.790769e-001 0 0 0
-3.307352e-003 8.059588e-002 -8.760975e-001 0 0 0
-3.298207e-004 8.058320e-002 -8.723902e-001 0 0 0
3.515688e-003 7.786127e-002 -8.677514e-001 0 0 0
3.671231e-003 7.602330e-002 -8.650514e-001 0 0 0
5.947127e-003 7.529450e-002 -8.617255e-001 0 0 0
6.407133e-003 7.388121e-002 -8.606013e-001 0 0 0
6.557718e-003 7.314464e-002 -8.590468e-001 0 0 0
5.417517e-003 7.247374e-002 -8.616205e-001 0 0 0
5.040764e-003 7.309175e-002 -8.629609e-001 0 0 0
5.196723e-003 7.363674e-002 -8.640199e-001 0 0 0
5.788705e-003 7.344042e-002 -8.643157e-001 0 0 0
5.956665e-003 7.321241e-002 -8.642656e-001 0 0 0
5.793072e-003 7.328031e-002 -8.646352e-001 0 0 0
5.812028e-003 7.390887e-002 -8.664707e-001 0 0 0
5.232505e-003 7.389780e-002 -8.673472e-001 0 0 0
5.928503e-003 7.351878e-002 -8.676068e-001 0 0 0
6.247078e-003 7.355970e-002 -8.674979e-001 0 0 0
7.765779e-003 7.365842e-002 -8.644853e-001 0 0 0
1.217120e-002 7.382194e-002 -8.632041e-001 0 0 0
1.510911e-002 7.310930e-002 -8.600231e-001 0 0 0
1.703718e-002 7.267876e-002 -8.597548e-001 0 0 0
1.490044e-002 7.388916e-002 -8.617642e-001 0 0 0
8.987751e-003 7.219125e-002 -8.631609e-001 0 0 0
-1.389096e-003 6.799963e-002 -8.618452e-001 0 0 0
-1.484906e-002 6.014463e-002 -8.585490e-001 0 0 0
-2.396535e-002 5.096098e-002 -8.516417e-001 0 0 0
-3.115896e-002 3.615701e-002 -8.373887e-001 0 0 0
-3.409980e-002 2.341006e-002 -8.258853e-001 0 0 0
-3.303581e-002 1.055172e-002 -8.136714e-001 0 0 0
-3.135485e-002 -4.588121e-003 -8.030663e-001 0 0 0
-2.805650e-002 -2.024785e-002 -7.915547e-001 0 0 0
-2.460887e-002 -3.071424e-002 -7.867161e-001 0 0 0
-1.955793e-002 -2.507844e-002 -7.935519e-001 0 0 0
-1.927923e-002 -7.792822e-003 -8.055317e-001 0 0 0
-1.361567e-002 1.751658e-002 -8.175035e-001 0 0 0
-6.211155e-003 4.098320e-002 -8.325084e-001 0 0 0
-1.253032e-003 5.576781e-002 -8.404217e-001 0 0 0
-9.758187e-004 6.451143e-002 -8.449386e-001 0 0 0
-8.814135e-004 6.980107e-002 -8.496326e-001 0 0 0
-1.415154e-003 7.500552e-002 -8.579623e-001 0 0 0
-5.772890e-003 7.930027e-002 -8.681999e-001 0 0 0
-9.522454e-003 8.120498e-002 -8.770118e-001 0 0 0
-1.290653e-002 8.244529e-002 -8.831229e-001 0 0 0
-1.393459e-002 8.400671e-002 -8.910538e-001 0 0 0
-1.441696e-002 8.559649e-002 -8.976182e-001 0 0 0
-1.362449e-002 8.822187e-002 -9.050866e-001 0 0 0
-1.056123e-002 9.191144e-002 -9.112190e-001 0 0 0
-9.001851e-003 9.617318e-002 -9.191258e-001 0 0 0
-1.235892e-002 9.671596e-002 -9.252634e-001 0 0 0
-1.722355e-002 9.804619e-002 -9.425842e-001 0 0 0
-2.271312e-002 9.674484e-002 -9.505022e-001 0 0 0
-3.101479e-002 9.300732e-002 -9.572472e-001 0 0 0
-4.129455e-002 8.793111e-002 -9.584346e-001 0 0 0
-5.663320e-002 7.755747e-002 -9.552439e-001 0 0 0
-6.683254e-002 6.726699e-002 -9.461330e-001 0 0 0
-7.418623e-002 5.412016e-002 -9.286339e-001 0 0 0
-7.839617e-002 3.972543e-002 -9.077209e-001 0 0 0
-7.707320e-002 2.624128e-002 -8.837768e-001 0 0 0
-6.771238e-002 1.043340e-002 -8.473032e-001 0 0 0
-5.519174e-002 -1.666559e-003 -8.222799e-001 0 0 0
-3.926739e-002 -1.284484e-002 -8.015433e-001 0 0 0
-2.643506e-002 -2.371985e-002 -7.828240e-001 0 0 0
-2.137051e-002 -3.228877e-002 -7.774521e-001 0 0 0
-2.436391e-002 -4.059684e-002 -7.815352e-001 0 0 0
-3.184521e-002 -4.676497e-002 -7.984298e-001 0 0 0
-4.149611e-002 -5.096590e-002 -8.130726e-001 0 0 0
-4.887946e-002 -5.063869e-002 -8.367476e-001 0 0 0
-5.284719e-002 -4.833512e-002 -8.620084e-001 0 0 0
-5.266164e-002 -4.465064e-002 -8.768377e-001 0 0 0
-5.058436e-002 -3.405824e-002 -8.928392e-001 0 0 0
-5.019647e-002 -1.809782e-002 -9.066985e-001 0 0 0
-5.014476e-002 1.667201e-003 -9.209369e-001 0 0 0
-4.775181e-002 2.160603e-002 -9.321074e-001 0 0 0
-4.189742e-002 4.523855e-002 -9.412989e-001 0 0 0
-3.344948e-002 7.009194e-002 -9.481060e-001 0 0 0
-2.155312e-002 9.240260e-002 -9.523640e-001 0 0 0
-1.007912e-002 1.059053e-001 -9.558455e-001 0 0 0
-3.936762e-003 6.718606e-003 -2.262950e-002 0 255 0
-3.678761e-003 6.221345e-003 -7.262636e-002 255 255 0
-8.835009e-001 1.121030e-001 -4.560641e-001 255 0 0
-8.368267e-001 1.026290e-001 -4.712877e-001 255 255 0
