ply
format ascii 1.0
element face 0
property list uchar int vertex_indices
element vertex 110
property float x
property float y
property float z
property uchar diffuse_red
property uchar diffuse_green
property uchar diffuse_blue
end_header
-1.132263e-002 5.157588e-002 -8.826695e-001 0 0 0
-1.367072e-002 4.356265e-002 -8.803051e-001 0 0 0
-1.695759e-002 3.530065e-002 -8.786330e-001 0 0 0
-2.032522e-002 2.607821e-002 -8.761962e-001 0 0 0
-2.195146e-002 1.600850e-002 -8.768070e-001 0 0 0
-2.215329e-002 1.044267e-002 -8.829125e-001 0 0 0
-2.347511e-002 9.388155e-003 -8.915939e-001 0 0 0
-2.607628e-002 1.407788e-002 -9.030771e-001 0 0 0
-2.813671e-002 2.367439e-002 -9.153117e-001 0 0 0
-3.139644e-002 3.438409e-002 -9.271414e-001 0 0 0
-3.601461e-002 4.386371e-002 -9.382524e-001 0 0 0
-4.240260e-002 5.131443e-002 -9.463723e-001 0 0 0
-5.132576e-002 5.674980e-002 -9.504894e-001 0 0 0
-6.194499e-002 5.879351e-002 -9.497612e-001 0 0 0
-7.236555e-002 5.551978e-002 -9.443753e-001 0 0 0
-8.048940e-002 4.872308e-002 -9.334225e-001 0 0 0
-8.431284e-002 4.008399e-002 -9.200527e-001 0 0 0
-8.472857e-002 3.291135e-002 -9.053929e-001 0 0 0
-8.222891e-002 3.227223e-002 -8.973256e-001 0 0 0
-8.113857e-002 3.407977e-002 -8.913788e-001 0 0 0
-7.005320e-002 4.403117e-002 -8.845457e-001 0 0 0
-5.325234e-002 5.436476e-002 -8.808955e-001 0 0 0
-3.886175e-002 6.283609e-002 -8.800859e-001 0 0 0
-2.263141e-002 6.996588e-002 -8.773216e-001 0 0 0
-1.416526e-002 7.471930e-002 -8.766104e-001 0 0 0
-7.375540e-003 7.899788e-002 -8.740280e-001 0 0 0
-4.721584e-003 7.872149e-002 -8.699857e-001 0 0 0
-1.980116e-003 7.595367e-002 -8.659080e-001 0 0 0
-2.145288e-003 7.400103e-002 -8.625228e-001 0 0 0
-2.690908e-004 7.318542e-002 -8.596229e-001 0 0 0
-3.323268e-004 7.166738e-002 -8.574994e-001 0 0 0
-2.045535e-004 7.068091e-002 -8.565199e-001 0 0 0
-1.181061e-003 7.031677e-002 -8.583581e-001 0 0 0
-1.170737e-003 7.097304e-002 -8.604297e-001 0 0 0
-7.930018e-004 7.159230e-002 -8.614814e-001 0 0 0
-1.749237e-004 7.159109e-002 -8.621140e-001 0 0 0
-3.802412e-005 7.128372e-002 -8.619185e-001 0 0 0
-1.993435e-005 7.145551e-002 -8.629848e-001 0 0 0
2.937818e-004 7.212574e-002 -8.646758e-001 0 0 0
2.357357e-004 7.229886e-002 -8.666433e-001 0 0 0
5.458872e-004 7.201049e-002 -8.666304e-001 0 0 0
8.647112e-004 7.206108e-002 -8.661957e-001 0 0 0
2.801127e-003 7.220942e-002 -8.644181e-001 0 0 0
5.953758e-003 7.222116e-002 -8.621837e-001 0 0 0
8.895102e-003 7.145117e-002 -8.597700e-001 0 0 0
1.056451e-002 7.129291e-002 -8.594870e-001 0 0 0
8.518255e-003 7.243748e-002 -8.610155e-001 0 0 0
2.672421e-003 7.036696e-002 -8.608944e-001 0 0 0
-8.867654e-003 6.511799e-002 -8.571064e-001 0 0 0
-2.051488e-002 5.677889e-002 -8.523982e-001 0 0 0
-3.062841e-002 4.662638e-002 -8.418308e-001 0 0 0
-4.053158e-002 3.080859e-002 -8.236171e-001 0 0 0
-4.490759e-002 1.807875e-002 -8.116235e-001 0 0 0
-4.495312e-002 4.793685e-003 -7.981347e-001 0 0 0
-4.445533e-002 -9.640747e-003 -7.871684e-001 0 0 0
-4.204386e-002 -2.489966e-002 -7.769307e-001 0 0 0
-3.879588e-002 -3.461213e-002 -7.733431e-001 0 0 0
-3.441337e-002 -2.864365e-002 -7.801437e-001 0 0 0
-3.279674e-002 -1.204608e-002 -7.919549e-001 0 0 0
-2.585775e-002 1.296398e-002 -8.061492e-001 0 0 0
-1.739981e-002 3.633818e-002 -8.222881e-001 0 0 0
-1.091752e-002 5.176288e-002 -8.333987e-001 0 0 0
-1.017697e-002 6.058514e-002 -8.377631e-001 0 0 0
-9.802398e-003 6.591335e-002 -8.423160e-001 0 0 0
-9.335716e-003 7.187375e-002 -8.524339e-001 0 0 0
-1.181039e-002 7.650597e-002 -8.623432e-001 0 0 0
-1.393105e-002 7.911084e-002 -8.722048e-001 0 0 0
-1.600811e-002 8.090411e-002 -8.805055e-001 0 0 0
-1.587198e-002 8.302528e-002 -8.896480e-001 0 0 0
-1.531652e-002 8.547684e-002 -8.988171e-001 0 0 0
-1.320538e-002 8.890973e-002 -9.074357e-001 0 0 0
-8.433486e-003 9.363435e-002 -9.166441e-001 0 0 0
-5.528316e-003 9.895023e-002 -9.280556e-001 0 0 0
-7.699481e-003 1.004944e-001 -9.371127e-001 0 0 0
-1.099263e-002 1.020705e-001 -9.512404e-001 0 0 0
-1.429090e-002 1.022987e-001 -9.636785e-001 0 0 0
-2.131447e-002 9.850180e-002 -9.704870e-001 0 0 0
-3.212866e-002 9.209891e-002 -9.716220e-001 0 0 0
-4.676245e-002 8.097642e-002 -9.649121e-001 0 0 0
-6.026925e-002 6.867133e-002 -9.490802e-001 0 0 0
-7.051848e-002 5.298872e-002 -9.238410e-001 0 0 0
-7.657266e-002 3.700948e-002 -8.981090e-001 0 0 0
-7.800635e-002 2.169965e-002 -8.676610e-001 0 0 0
-7.265529e-002 5.315824e-003 -8.328377e-001 0 0 0
-6.329098e-002 -7.133007e-003 -8.050157e-001 0 0 0
-5.231029e-002 -1.732830e-002 -7.850378e-001 0 0 0
-4.215759e-002 -2.818709e-002 -7.677158e-001 0 0 0
-3.815638e-002 -3.625140e-002 -7.626001e-001 0 0 0
-4.017388e-002 -4.378509e-002 -7.672795e-001 0 0 0
-4.528032e-002 -4.884103e-002 -7.829569e-001 0 0 0
-5.055766e-002 -5.340653e-002 -8.041817e-001 0 0 0
-5.427337e-002 -5.248882e-002 -8.304562e-001 0 0 0
-5.568213e-002 -4.904269e-002 -8.543791e-001 0 0 0
-5.243156e-002 -4.525694e-002 -8.751061e-001 0 0 0
-4.891409e-002 -3.420335e-002 -8.924266e-001 0 0 0
-4.657435e-002 -1.787387e-002 -9.105253e-001 0 0 0
-4.478408e-002 2.114901e-003 -9.263886e-001 0 0 0
-4.127160e-002 2.329581e-002 -9.403953e-001 0 0 0
-3.477712e-002 4.847740e-002 -9.520802e-001 0 0 0
-2.583501e-002 7.394348e-002 -9.599475e-001 0 0 0
-1.467255e-002 9.707488e-002 -9.666275e-001 0 0 0
-2.150580e-003 1.121453e-001 -9.730930e-001 0 0 0
-1.091192e-001 -3.108924e-002 -1.623755e-001 0 255 0
-1.016767e-001 -2.906493e-002 -2.117770e-001 255 255 0
-6.606132e-001 2.428901e-002 -3.689379e-001 255 0 0
-6.175247e-001 1.803689e-002 -3.935203e-001 255 255 0
3.945787e-001 4.697350e-001 -9.955129e-001 0 255 0
3.639019e-001 4.309484e-001 -9.881281e-001 255 255 0
-1.192122e-001 5.203083e-001 -1.184967e+000 255 0 0
-1.135310e-001 4.784658e-001 -1.158191e+000 255 255 0
