ply
format ascii 1.0
element face 0
property list uchar int vertex_indices
element vertex 208
property float x
property float y
property float z
property uchar diffuse_red
property uchar diffuse_green
property uchar diffuse_blue
end_header
3.421757e-002 -1.560615e-001 -9.939903e-001 0 0 0
3.758832e-002 -1.596691e-001 -9.939355e-001 0 0 0
3.784414e-002 -1.622677e-001 -9.939405e-001 0 0 0
3.520419e-002 -1.653885e-001 -9.938159e-001 0 0 0
3.019844e-002 -1.671799e-001 -9.932862e-001 0 0 0
2.010353e-002 -1.670009e-001 -9.933324e-001 0 0 0
8.535173e-003 -1.634902e-001 -9.945863e-001 0 0 0
-3.278916e-003 -1.586214e-001 -9.972968e-001 0 0 0
-1.575071e-002 -1.510270e-001 -9.991895e-001 0 0 0
-2.605277e-002 -1.434739e-001 -1.002912e+000 0 0 0
-3.471403e-002 -1.348931e-001 -1.007721e+000 0 0 0
-4.409385e-002 -1.263013e-001 -1.013476e+000 0 0 0
-5.240255e-002 -1.168691e-001 -1.018443e+000 0 0 0
-6.055812e-002 -1.056483e-001 -1.022332e+000 0 0 0
-6.710284e-002 -9.552806e-002 -1.023815e+000 0 0 0
-7.309942e-002 -8.532652e-002 -1.023247e+000 0 0 0
-7.686118e-002 -7.352685e-002 -1.021230e+000 0 0 0
-7.839140e-002 -6.193768e-002 -1.018768e+000 0 0 0
-7.851045e-002 -4.923913e-002 -1.014689e+000 0 0 0
-7.626574e-002 -3.623352e-002 -1.008792e+000 0 0 0
-7.118501e-002 -2.318403e-002 -1.003504e+000 0 0 0
-6.490244e-002 -1.108909e-002 -1.001813e+000 0 0 0
-6.025789e-002 -1.147684e-003 -9.974892e-001 0 0 0
-5.789225e-002 6.764962e-003 -9.872705e-001 0 0 0
-5.577897e-002 1.205553e-002 -9.719500e-001 0 0 0
-5.492594e-002 1.277106e-002 -9.512837e-001 0 0 0
-5.341968e-002 6.434495e-003 -9.320343e-001 0 0 0
-5.508580e-002 -1.280732e-003 -9.148432e-001 0 0 0
-5.789525e-002 -1.138405e-002 -9.052404e-001 0 0 0
-6.362768e-002 -2.484554e-002 -9.004924e-001 0 0 0
-6.881302e-002 -3.862423e-002 -8.980126e-001 0 0 0
-7.488147e-002 -5.180488e-002 -8.970929e-001 0 0 0
-8.059550e-002 -6.326842e-002 -9.023689e-001 0 0 0
-8.721883e-002 -7.128755e-002 -9.097287e-001 0 0 0
-9.415862e-002 -7.802196e-002 -9.220045e-001 0 0 0
-9.947441e-002 -8.586210e-002 -9.373024e-001 0 0 0
-1.010681e-001 -9.582372e-002 -9.527556e-001 0 0 0
-1.007679e-001 -1.049577e-001 -9.672455e-001 0 0 0
-9.667878e-002 -1.165377e-001 -9.863986e-001 0 0 0
-8.887456e-002 -1.280559e-001 -1.001217e+000 0 0 0
-7.554911e-002 -1.401976e-001 -1.015504e+000 0 0 0
-5.917382e-002 -1.513851e-001 -1.024550e+000 0 0 0
-4.044140e-002 -1.615140e-001 -1.027504e+000 0 0 0
-1.613843e-002 -1.707783e-001 -1.025673e+000 0 0 0
4.387621e-003 -1.778475e-001 -1.018306e+000 0 0 0
2.407694e-002 -1.839658e-001 -1.003575e+000 0 0 0
3.838227e-002 -1.875766e-001 -9.893669e-001 0 0 0
4.987514e-002 -1.889166e-001 -9.698449e-001 0 0 0
5.434944e-002 -1.876852e-001 -9.514120e-001 0 0 0
5.197180e-002 -1.856604e-001 -9.348948e-001 0 0 0
4.533602e-002 -1.821820e-001 -9.194694e-001 0 0 0
3.451363e-002 -1.789861e-001 -9.080172e-001 0 0 0
1.854774e-002 -1.734057e-001 -8.942431e-001 0 0 0
4.113199e-003 -1.663311e-001 -8.826605e-001 0 0 0
-1.198982e-002 -1.568373e-001 -8.678543e-001 0 0 0
-2.610860e-002 -1.449047e-001 -8.534819e-001 0 0 0
-4.117083e-002 -1.303228e-001 -8.397128e-001 0 0 0
-5.321102e-002 -1.131053e-001 -8.296872e-001 0 0 0
-6.509743e-002 -9.455348e-002 -8.237498e-001 0 0 0
-7.402672e-002 -7.390065e-002 -8.163966e-001 0 0 0
-7.991986e-002 -5.417938e-002 -8.103584e-001 0 0 0
-8.446023e-002 -3.639653e-002 -8.056071e-001 0 0 0
-8.725916e-002 -1.998977e-002 -8.018856e-001 0 0 0
-8.778613e-002 -5.388437e-003 -8.001883e-001 0 0 0
-8.960418e-002 1.845433e-002 -8.033274e-001 0 0 0
-9.413694e-002 1.473956e-002 -8.113537e-001 0 0 0
-9.804436e-002 1.111390e-003 -8.163145e-001 0 0 0
-1.023084e-001 -1.717129e-002 -8.222781e-001 0 0 0
-1.032925e-001 -3.711338e-002 -8.263109e-001 0 0 0
-1.001672e-001 -5.734860e-002 -8.383148e-001 0 0 0
-9.260482e-002 -7.097478e-002 -8.512777e-001 0 0 0
-7.712993e-002 -8.063841e-002 -8.572747e-001 0 0 0
-5.528262e-002 -8.942232e-002 -8.548401e-001 0 0 0
-3.336204e-002 -9.824797e-002 -8.456186e-001 0 0 0
-1.522477e-002 -1.037585e-001 -8.364656e-001 0 0 0
-9.391477e-003 -1.071440e-001 -8.265467e-001 0 0 0
-1.270458e-002 -1.087518e-001 -8.202294e-001 0 0 0
-2.469943e-002 -1.106688e-001 -8.190887e-001 0 0 0
-3.872733e-002 -1.111227e-001 -8.229774e-001 0 0 0
-5.586559e-002 -1.067250e-001 -8.293695e-001 0 0 0
-7.061693e-002 -9.882054e-002 -8.369066e-001 0 0 0
-8.241504e-002 -8.849677e-002 -8.471032e-001 0 0 0
-8.984117e-002 -7.375018e-002 -8.554879e-001 0 0 0
-9.584036e-002 -5.792711e-002 -8.616928e-001 0 0 0
-1.022239e-001 -3.650911e-002 -8.670190e-001 0 0 0
-1.079622e-001 1.272200e-002 -8.795135e-001 0 0 0
-1.077180e-001 1.870256e-002 -8.871680e-001 0 0 0
-1.063167e-001 1.601235e-002 -8.951735e-001 0 0 0
-1.054733e-001 1.105281e-002 -9.039388e-001 0 0 0
-1.025275e-001 4.747016e-003 -9.134918e-001 0 0 0
-9.984915e-002 -2.205256e-003 -9.191090e-001 0 0 0
-9.812117e-002 -1.086543e-002 -9.224276e-001 0 0 0
-9.521010e-002 -2.406663e-002 -9.242180e-001 0 0 0
-9.424284e-002 -3.800008e-002 -9.227431e-001 0 0 0
-9.621743e-002 -5.039734e-002 -9.174226e-001 0 0 0
-9.810084e-002 -5.947938e-002 -9.089502e-001 0 0 0
-1.012534e-001 -6.233509e-002 -8.934467e-001 0 0 0
-1.013881e-001 -6.165674e-002 -8.794858e-001 0 0 0
-1.025010e-001 -5.337491e-002 -8.678896e-001 0 0 0
-1.063024e-001 -3.724790e-002 -8.599450e-001 0 0 0
-1.021123e-001 -1.969796e-002 -8.542438e-001 0 0 0
-9.543298e-002 -7.739683e-003 -8.515049e-001 0 0 0
-8.249652e-002 -4.975593e-003 -8.461460e-001 0 0 0
-6.842874e-002 -9.616786e-003 -8.353712e-001 0 0 0
-5.396445e-002 -2.017518e-002 -8.302798e-001 0 0 0
-3.525118e-002 -3.284289e-002 -8.279851e-001 0 0 0
-1.998891e-002 -4.259113e-002 -8.277991e-001 0 0 0
-9.669696e-003 -5.012865e-002 -8.273835e-001 0 0 0
1.157406e-003 -5.617858e-002 -8.254833e-001 0 0 0
1.074982e-002 -6.049125e-002 -8.217005e-001 0 0 0
1.454290e-002 -6.235511e-002 -8.163396e-001 0 0 0
1.472525e-002 -6.092369e-002 -8.069202e-001 0 0 0
1.168495e-002 -5.757150e-002 -7.966191e-001 0 0 0
-5.128999e-004 -5.452019e-002 -7.903899e-001 0 0 0
-1.336864e-002 -4.959041e-002 -7.853822e-001 0 0 0
-2.848986e-002 -4.264550e-002 -7.822972e-001 0 0 0
-4.180135e-002 -3.817408e-002 -7.839964e-001 0 0 0
-5.755993e-002 -3.816196e-002 -7.943844e-001 0 0 0
-7.214595e-002 -3.863571e-002 -8.040915e-001 0 0 0
-8.471978e-002 -4.169051e-002 -8.175094e-001 0 0 0
-9.531053e-002 -4.540841e-002 -8.313603e-001 0 0 0
-1.056008e-001 -4.974179e-002 -8.507417e-001 0 0 0
-1.115279e-001 -5.354484e-002 -8.709638e-001 0 0 0
-1.125068e-001 -5.757728e-002 -8.923125e-001 0 0 0
-1.112291e-001 -6.148633e-002 -9.160438e-001 0 0 0
-1.073234e-001 -6.556901e-002 -9.408016e-001 0 0 0
-1.063904e-001 -6.958653e-002 -9.630488e-001 0 0 0
-1.060654e-001 -7.289167e-002 -9.850798e-001 0 0 0
-1.081611e-001 -7.460889e-002 -1.004699e+000 0 0 0
-1.133996e-001 -7.192853e-002 -1.016545e+000 0 0 0
-1.227198e-001 -6.538736e-002 -1.020148e+000 0 0 0
-1.314425e-001 -5.574640e-002 -1.014121e+000 0 0 0
-1.404949e-001 -4.406834e-002 -9.990123e-001 0 0 0
-1.459127e-001 -3.720904e-002 -9.846728e-001 0 0 0
-1.509382e-001 -3.128317e-002 -9.658428e-001 0 0 0
-1.532085e-001 -2.751931e-002 -9.521161e-001 0 0 0
-1.544805e-001 -2.522843e-002 -9.421725e-001 0 0 0
-1.373913e-001 -4.206917e-002 -9.439426e-001 0 0 0
-1.315650e-001 -5.227760e-002 -9.591607e-001 0 0 0
-1.264510e-001 -6.318884e-002 -9.815524e-001 0 0 0
-1.224043e-001 -7.236838e-002 -1.000227e+000 0 0 0
-1.166302e-001 -8.061810e-002 -1.014585e+000 0 0 0
-1.084078e-001 -8.991651e-002 -1.024444e+000 0 0 0
-1.012798e-001 -9.832232e-002 -1.032703e+000 0 0 0
-9.677696e-002 -1.063030e-001 -1.043675e+000 0 0 0
-9.025882e-002 -1.126580e-001 -1.056560e+000 0 0 0
-8.089476e-002 -1.185764e-001 -1.071589e+000 0 0 0
-7.127624e-002 -1.257137e-001 -1.083230e+000 0 0 0
-6.067868e-002 -1.387662e-001 -1.095192e+000 0 0 0
-4.934766e-002 -1.515909e-001 -1.102956e+000 0 0 0
-3.801147e-002 -1.656866e-001 -1.109179e+000 0 0 0
-2.423494e-002 -1.814496e-001 -1.112244e+000 0 0 0
-9.135125e-003 -1.971995e-001 -1.110767e+000 0 0 0
5.022383e-003 -2.104891e-001 -1.105252e+000 0 0 0
2.439626e-002 -2.227044e-001 -1.097412e+000 0 0 0
4.201265e-002 -2.297712e-001 -1.086468e+000 0 0 0
5.876601e-002 -2.355095e-001 -1.072117e+000 0 0 0
7.126561e-002 -2.390602e-001 -1.058683e+000 0 0 0
8.285573e-002 -2.419436e-001 -1.045730e+000 0 0 0
9.475934e-002 -2.407107e-001 -1.031911e+000 0 0 0
1.063158e-001 -2.381108e-001 -1.017235e+000 0 0 0
1.188988e-001 -2.338201e-001 -9.982949e-001 0 0 0
1.293267e-001 -2.281233e-001 -9.823525e-001 0 0 0
1.399136e-001 -2.153214e-001 -9.635775e-001 0 0 0
1.432488e-001 -2.013507e-001 -9.465934e-001 0 0 0
1.378297e-001 -1.893247e-001 -9.316825e-001 0 0 0
1.295133e-001 -1.800728e-001 -9.197285e-001 0 0 0
1.211198e-001 -1.737748e-001 -9.117652e-001 0 0 0
1.096769e-001 -1.736732e-001 -9.057285e-001 0 0 0
9.726511e-002 -1.779083e-001 -9.058433e-001 0 0 0
7.966760e-002 -1.837108e-001 -9.107721e-001 0 0 0
6.431597e-002 -1.932183e-001 -9.224641e-001 0 0 0
4.900106e-002 -2.014401e-001 -9.363926e-001 0 0 0
3.301333e-002 -2.094536e-001 -9.554196e-001 0 0 0
2.082174e-002 -2.152156e-001 -9.732073e-001 0 0 0
8.538139e-003 -2.208908e-001 -9.969105e-001 0 0 0
-4.493840e-003 -2.216657e-001 -1.016187e+000 0 0 0
-1.590362e-002 -2.211530e-001 -1.036804e+000 0 0 0
-2.914868e-002 -2.162642e-001 -1.051362e+000 0 0 0
-3.959211e-002 -2.111402e-001 -1.065380e+000 0 0 0
-4.916577e-002 -2.037382e-001 -1.076819e+000 0 0 0
-5.769312e-002 -1.942773e-001 -1.084739e+000 0 0 0
-7.442573e-002 -1.683130e-001 -1.097886e+000 0 0 0
-7.999615e-002 -1.515765e-001 -1.109148e+000 0 0 0
-8.333173e-002 -1.329944e-001 -1.118612e+000 0 0 0
-8.486529e-002 -1.171797e-001 -1.125688e+000 0 0 0
-8.394157e-002 -1.035889e-001 -1.133263e+000 0 0 0
-8.282701e-002 -9.188132e-002 -1.138614e+000 0 0 0
-7.983985e-002 -8.077362e-002 -1.143618e+000 0 0 0
-7.614612e-002 -7.148549e-002 -1.146947e+000 0 0 0
-7.347605e-002 -6.828768e-002 -1.148915e+000 0 0 0
-7.308442e-002 -7.200031e-002 -1.148058e+000 0 0 0
-7.345846e-002 -8.270806e-002 -1.146320e+000 0 0 0
-7.414079e-002 -9.719208e-002 -1.142571e+000 0 0 0
-7.472853e-002 -1.149883e-001 -1.135807e+000 0 0 0
-7.384321e-002 -1.320466e-001 -1.130614e+000 0 0 0
-6.632819e-002 -1.625534e-001 -1.110378e+000 0 0 0
-6.042416e-002 -1.746066e-001 -1.100273e+000 0 0 0
-7.120029e-002 -1.449148e-001 -1.124105e+000 0 0 0
-7.144456e-002 -1.481050e-001 -1.120279e+000 0 0 0
-9.605554e-002 2.341473e-002 -2.791722e-001 0 255 0
-8.927610e-002 2.163285e-002 -3.286784e-001 255 255 0
-5.882680e-001 -3.822194e-002 -4.745733e-001 255 0 0
-5.493541e-001 -3.251969e-002 -5.054472e-001 255 255 0
4.248079e-001 -5.210053e-001 -1.064730e+000 0 255 0
3.894324e-001 -4.866580e-001 -1.056434e+000 255 255 0
-1.388971e-001 -5.603472e-001 -1.232157e+000 255 0 0
-1.327378e-001 -5.174663e-001 -1.207191e+000 255 255 0
