ply
format ascii 1.0
element face 0
property list uchar int vertex_indices
element vertex 202
property float x
property float y
property float z
property uchar diffuse_red
property uchar diffuse_green
property uchar diffuse_blue
end_header
3.325363e-002 -1.520050e-001 -9.881982e-001 0 0 0
3.667961e-002 -1.553952e-001 -9.876497e-001 0 0 0
3.685669e-002 -1.580676e-001 -9.880328e-001 0 0 0
3.430303e-002 -1.611347e-001 -9.884012e-001 0 0 0
2.906320e-002 -1.633804e-001 -9.885266e-001 0 0 0
2.007138e-002 -1.638150e-001 -9.905097e-001 0 0 0
7.035161e-003 -1.605503e-001 -9.917993e-001 0 0 0
-4.728474e-003 -1.555023e-001 -9.963959e-001 0 0 0
-1.770672e-002 -1.487094e-001 -9.981641e-001 0 0 0
-2.718854e-002 -1.412498e-001 -1.003103e+000 0 0 0
-3.747495e-002 -1.321427e-001 -1.007936e+000 0 0 0
-4.654011e-002 -1.237610e-001 -1.013415e+000 0 0 0
-5.643420e-002 -1.137945e-001 -1.017214e+000 0 0 0
-6.475123e-002 -1.022531e-001 -1.021474e+000 0 0 0
-7.200869e-002 -9.211490e-002 -1.022933e+000 0 0 0
-7.780873e-002 -8.189892e-002 -1.022619e+000 0 0 0
-8.147015e-002 -7.017936e-002 -1.020583e+000 0 0 0
-8.319980e-002 -5.900799e-002 -1.018100e+000 0 0 0
-8.318972e-002 -4.605824e-002 -1.013560e+000 0 0 0
-8.027016e-002 -3.267140e-002 -1.007194e+000 0 0 0
-7.432683e-002 -1.936865e-002 -1.001891e+000 0 0 0
-6.849887e-002 -7.308842e-003 -9.984868e-001 0 0 0
-6.295640e-002 2.945614e-003 -9.943452e-001 0 0 0
-5.986788e-002 1.079568e-002 -9.834012e-001 0 0 0
-5.615660e-002 1.573203e-002 -9.707676e-001 0 0 0
-5.347214e-002 1.576640e-002 -9.524757e-001 0 0 0
-5.078623e-002 7.818469e-003 -9.335382e-001 0 0 0
-5.044832e-002 -5.363501e-004 -9.207159e-001 0 0 0
-5.303299e-002 -1.196454e-002 -9.117664e-001 0 0 0
-5.786061e-002 -2.654812e-002 -9.099496e-001 0 0 0
-6.398851e-002 -4.205572e-002 -9.083226e-001 0 0 0
-7.029299e-002 -5.622364e-002 -9.085523e-001 0 0 0
-7.642689e-002 -6.798806e-002 -9.154291e-001 0 0 0
-8.478928e-002 -7.671748e-002 -9.227521e-001 0 0 0
-9.208314e-002 -8.288016e-002 -9.363274e-001 0 0 0
-9.937871e-002 -9.057147e-002 -9.525680e-001 0 0 0
-1.024210e-001 -9.977143e-002 -9.654599e-001 0 0 0
-1.026776e-001 -1.081132e-001 -9.792880e-001 0 0 0
-1.000787e-001 -1.183330e-001 -9.959227e-001 0 0 0
-9.185223e-002 -1.289037e-001 -1.009941e+000 0 0 0
-7.860522e-002 -1.391902e-001 -1.020770e+000 0 0 0
-6.419194e-002 -1.486719e-001 -1.024968e+000 0 0 0
-4.322566e-002 -1.581496e-001 -1.028138e+000 0 0 0
-2.132215e-002 -1.657432e-001 -1.021294e+000 0 0 0
2.346072e-003 -1.731542e-001 -1.015085e+000 0 0 0
2.367989e-002 -1.798920e-001 -1.000558e+000 0 0 0
3.892615e-002 -1.841271e-001 -9.862829e-001 0 0 0
5.082527e-002 -1.867266e-001 -9.672650e-001 0 0 0
5.784217e-002 -1.876961e-001 -9.501746e-001 0 0 0
5.832073e-002 -1.875115e-001 -9.372211e-001 0 0 0
5.414131e-002 -1.862725e-001 -9.245843e-001 0 0 0
4.393080e-002 -1.849315e-001 -9.142116e-001 0 0 0
3.092045e-002 -1.821203e-001 -9.044579e-001 0 0 0
1.549186e-002 -1.767081e-001 -8.937612e-001 0 0 0
1.869023e-003 -1.697384e-001 -8.819676e-001 0 0 0
-1.337122e-002 -1.588408e-001 -8.677115e-001 0 0 0
-2.793017e-002 -1.455449e-001 -8.554553e-001 0 0 0
-4.030585e-002 -1.280427e-001 -8.451907e-001 0 0 0
-5.242857e-002 -1.092787e-001 -8.391770e-001 0 0 0
-6.267590e-002 -8.700420e-002 -8.314426e-001 0 0 0
-6.876598e-002 -6.561662e-002 -8.249596e-001 0 0 0
-7.369839e-002 -4.586883e-002 -8.193510e-001 0 0 0
-7.634906e-002 -2.746713e-002 -8.148418e-001 0 0 0
-7.737146e-002 -1.141224e-002 -8.120823e-001 0 0 0
-7.919341e-002 1.591395e-002 -8.139811e-001 0 0 0
-8.512598e-002 1.211305e-002 -8.230143e-001 0 0 0
-9.010556e-002 -3.274127e-003 -8.286953e-001 0 0 0
-9.483972e-002 -2.325289e-002 -8.367148e-001 0 0 0
-9.643270e-002 -4.562305e-002 -8.419275e-001 0 0 0
-9.356662e-002 -6.736254e-002 -8.548816e-001 0 0 0
-8.573977e-002 -8.119146e-002 -8.680657e-001 0 0 0
-7.053180e-002 -9.095102e-002 -8.722802e-001 0 0 0
-4.445801e-002 -1.000023e-001 -8.699995e-001 0 0 0
-1.971703e-002 -1.094392e-001 -8.596094e-001 0 0 0
3.720139e-004 -1.160576e-001 -8.476672e-001 0 0 0
7.807183e-003 -1.198906e-001 -8.380785e-001 0 0 0
5.100562e-003 -1.225481e-001 -8.318019e-001 0 0 0
-8.015504e-003 -1.253001e-001 -8.313637e-001 0 0 0
-2.324588e-002 -1.256687e-001 -8.374146e-001 0 0 0
-4.310424e-002 -1.210770e-001 -8.449235e-001 0 0 0
-6.045841e-002 -1.126785e-001 -8.522988e-001 0 0 0
-7.428100e-002 -1.005545e-001 -8.639447e-001 0 0 0
-8.334573e-002 -8.417780e-002 -8.717884e-001 0 0 0
-9.081949e-002 -6.636850e-002 -8.773275e-001 0 0 0
-9.829384e-002 -4.240362e-002 -8.818383e-001 0 0 0
-1.059835e-001 1.243727e-002 -8.919324e-001 0 0 0
-1.060362e-001 1.911301e-002 -8.987223e-001 0 0 0
-1.048999e-001 1.665184e-002 -9.058163e-001 0 0 0
-1.044140e-001 1.155091e-002 -9.154188e-001 0 0 0
-1.020690e-001 5.075787e-003 -9.232719e-001 0 0 0
-9.917751e-002 -1.941470e-003 -9.288110e-001 0 0 0
-9.742354e-002 -1.106426e-002 -9.328065e-001 0 0 0
-9.449703e-002 -2.489228e-002 -9.349097e-001 0 0 0
-9.338103e-002 -4.016558e-002 -9.337271e-001 0 0 0
-9.474929e-002 -5.383342e-002 -9.301002e-001 0 0 0
-9.632799e-002 -6.436534e-002 -9.234111e-001 0 0 0
-9.856001e-002 -6.863490e-002 -9.097445e-001 0 0 0
-9.798792e-002 -6.900493e-002 -8.961724e-001 0 0 0
-9.837322e-002 -6.083705e-002 -8.841623e-001 0 0 0
-1.022388e-001 -4.349589e-002 -8.756190e-001 0 0 0
-9.762709e-002 -2.481382e-002 -8.682162e-001 0 0 0
-9.006477e-002 -1.173585e-002 -8.641782e-001 0 0 0
-7.460261e-002 -8.238116e-003 -8.588904e-001 0 0 0
-5.917838e-002 -1.384962e-002 -8.463561e-001 0 0 0
-4.270960e-002 -2.524311e-002 -8.406417e-001 0 0 0
-2.183441e-002 -3.906845e-002 -8.369725e-001 0 0 0
-4.261010e-003 -4.968170e-002 -8.357977e-001 0 0 0
7.255203e-003 -5.747518e-002 -8.355749e-001 0 0 0
1.924315e-002 -6.394487e-002 -8.338028e-001 0 0 0
2.990241e-002 -6.863069e-002 -8.292583e-001 0 0 0
3.417055e-002 -7.107495e-002 -8.232417e-001 0 0 0
3.621335e-002 -7.002407e-002 -8.140934e-001 0 0 0
3.371202e-002 -6.731271e-002 -8.028192e-001 0 0 0
2.142781e-002 -6.481281e-002 -7.974247e-001 0 0 0
8.942588e-003 -6.022779e-002 -7.938280e-001 0 0 0
-8.235609e-003 -5.288056e-002 -7.911784e-001 0 0 0
-2.258683e-002 -4.829585e-002 -7.937638e-001 0 0 0
-4.173012e-002 -4.747771e-002 -8.058435e-001 0 0 0
-5.838471e-002 -4.797600e-002 -8.170174e-001 0 0 0
-7.442852e-002 -5.052942e-002 -8.323570e-001 0 0 0
-8.771124e-002 -5.429977e-002 -8.460805e-001 0 0 0
-1.005703e-001 -5.769460e-002 -8.678474e-001 0 0 0
-1.085096e-001 -6.089209e-002 -8.901130e-001 0 0 0
-1.112127e-001 -6.374991e-002 -9.072612e-001 0 0 0
-1.110985e-001 -6.628293e-002 -9.329312e-001 0 0 0
-1.084417e-001 -6.865950e-002 -9.536831e-001 0 0 0
-1.086580e-001 -7.125616e-002 -9.761761e-001 0 0 0
-1.098541e-001 -7.299565e-002 -9.927268e-001 0 0 0
-1.131888e-001 -7.329130e-002 -1.010587e+000 0 0 0
-1.196483e-001 -6.977103e-002 -1.020874e+000 0 0 0
-1.291053e-001 -6.302835e-002 -1.026109e+000 0 0 0
-1.388870e-001 -5.364547e-002 -1.020696e+000 0 0 0
-1.479677e-001 -4.273657e-002 -1.008648e+000 0 0 0
-1.532874e-001 -3.662286e-002 -9.966119e-001 0 0 0
-1.577198e-001 -3.135550e-002 -9.803299e-001 0 0 0
-1.596700e-001 -2.813043e-002 -9.668729e-001 0 0 0
-1.605848e-001 -2.630450e-002 -9.586781e-001 0 0 0
-1.415827e-001 -4.389734e-002 -9.588479e-001 0 0 0
-1.357898e-001 -5.407080e-002 -9.739360e-001 0 0 0
-1.318819e-001 -6.348770e-002 -9.919235e-001 0 0 0
-1.278222e-001 -7.179761e-002 -1.009153e+000 0 0 0
-1.232957e-001 -7.894868e-002 -1.020137e+000 0 0 0
-1.143778e-001 -8.792735e-002 -1.028890e+000 0 0 0
-1.079641e-001 -9.560849e-002 -1.034882e+000 0 0 0
-1.033078e-001 -1.023212e-001 -1.044461e+000 0 0 0
-9.677642e-002 -1.074629e-001 -1.055054e+000 0 0 0
-8.974092e-002 -1.116531e-001 -1.064573e+000 0 0 0
-7.938024e-002 -1.175954e-001 -1.074088e+000 0 0 0
-6.951559e-002 -1.289169e-001 -1.083112e+000 0 0 0
-5.839228e-002 -1.406101e-001 -1.088561e+000 0 0 0
-4.746169e-002 -1.538387e-001 -1.091806e+000 0 0 0
-3.442941e-002 -1.678231e-001 -1.093718e+000 0 0 0
-1.983449e-002 -1.824630e-001 -1.091039e+000 0 0 0
-5.515862e-003 -1.960120e-001 -1.083196e+000 0 0 0
1.201289e-002 -2.059911e-001 -1.076015e+000 0 0 0
3.165239e-002 -2.145647e-001 -1.065003e+000 0 0 0
4.978270e-002 -2.206431e-001 -1.054131e+000 0 0 0
6.154159e-002 -2.248001e-001 -1.039637e+000 0 0 0
7.468789e-002 -2.279387e-001 -1.027116e+000 0 0 0
8.626587e-002 -2.273703e-001 -1.015766e+000 0 0 0
1.012306e-001 -2.263325e-001 -1.004035e+000 0 0 0
1.153040e-001 -2.238861e-001 -9.864397e-001 0 0 0
1.265074e-001 -2.184699e-001 -9.681683e-001 0 0 0
1.401893e-001 -2.084055e-001 -9.542106e-001 0 0 0
1.449398e-001 -1.969556e-001 -9.394528e-001 0 0 0
1.416509e-001 -1.858720e-001 -9.237097e-001 0 0 0
1.367190e-001 -1.791338e-001 -9.154635e-001 0 0 0
1.291593e-001 -1.740960e-001 -9.090831e-001 0 0 0
1.200484e-001 -1.752941e-001 -9.052978e-001 0 0 0
1.066606e-001 -1.803047e-001 -9.067870e-001 0 0 0
8.819470e-002 -1.864788e-001 -9.118577e-001 0 0 0
7.319138e-002 -1.952488e-001 -9.259331e-001 0 0 0
5.664063e-002 -2.034882e-001 -9.406926e-001 0 0 0
3.784272e-002 -2.104019e-001 -9.588318e-001 0 0 0
2.181818e-002 -2.142313e-001 -9.748583e-001 0 0 0
8.736169e-003 -2.183662e-001 -9.982855e-001 0 0 0
-6.882749e-003 -2.178287e-001 -1.015583e+000 0 0 0
-1.971318e-002 -2.154515e-001 -1.035298e+000 0 0 0
-3.359755e-002 -2.099726e-001 -1.050700e+000 0 0 0
-4.615936e-002 -2.032208e-001 -1.060545e+000 0 0 0
-5.653990e-002 -1.952374e-001 -1.071240e+000 0 0 0
-6.641229e-002 -1.849393e-001 -1.078255e+000 0 0 0
-8.455132e-002 -1.579741e-001 -1.090270e+000 0 0 0
-9.047366e-002 -1.414039e-001 -1.097338e+000 0 0 0
-9.459310e-002 -1.216347e-001 -1.104693e+000 0 0 0
-9.665969e-002 -1.051752e-001 -1.109347e+000 0 0 0
-9.506581e-002 -9.166983e-002 -1.114334e+000 0 0 0
-9.520920e-002 -8.008720e-002 -1.116232e+000 0 0 0
-9.261606e-002 -6.882460e-002 -1.118899e+000 0 0 0
-8.922883e-002 -5.948313e-002 -1.120304e+000 0 0 0
-8.674643e-002 -5.618928e-002 -1.121202e+000 0 0 0
-8.629015e-002 -5.982724e-002 -1.120729e+000 0 0 0
-8.649112e-002 -7.033360e-002 -1.120134e+000 0 0 0
-8.685420e-002 -8.468541e-002 -1.118297e+000 0 0 0
-8.635263e-002 -1.024491e-001 -1.115313e+000 0 0 0
-8.552225e-002 -1.202436e-001 -1.111312e+000 0 0 0
-7.610212e-002 -1.518272e-001 -1.096136e+000 0 0 0
-6.980125e-002 -1.641381e-001 -1.089391e+000 0 0 0
-3.454072e-002 -5.137227e-003 -1.086231e-001 0 255 0
-3.253466e-002 -4.717067e-003 -1.585810e-001 255 255 0
-8.682563e-001 -1.022721e-001 -3.875787e-001 255 0 0
-8.263903e-001 -9.486924e-002 -4.138928e-001 255 255 0
