ply
format ascii 1.0
element face 0
property list uchar int vertex_indices
element vertex 149
property float x
property float y
property float z
property uchar diffuse_red
property uchar diffuse_green
property uchar diffuse_blue
end_header
3.961715e-002 -6.570892e-002 -9.684029e-001 0 0 0
3.920255e-002 -7.004608e-002 -9.697030e-001 0 0 0
3.789571e-002 -8.018994e-002 -9.669841e-001 0 0 0
3.611523e-002 -8.995052e-002 -9.617375e-001 0 0 0
3.210556e-002 -9.907582e-002 -9.568017e-001 0 0 0
2.753040e-002 -1.059971e-001 -9.524989e-001 0 0 0
2.203636e-002 -1.144229e-001 -9.485628e-001 0 0 0
2.013894e-002 -1.241566e-001 -9.456025e-001 0 0 0
2.133841e-002 -1.318422e-001 -9.446554e-001 0 0 0
2.329535e-002 -1.379608e-001 -9.476836e-001 0 0 0
2.564155e-002 -1.420351e-001 -9.527494e-001 0 0 0
2.719046e-002 -1.453946e-001 -9.597714e-001 0 0 0
2.398033e-002 -1.462080e-001 -9.674677e-001 0 0 0
1.722058e-002 -1.453466e-001 -9.736726e-001 0 0 0
7.512769e-003 -1.422619e-001 -9.790224e-001 0 0 0
-2.258952e-003 -1.378114e-001 -9.831505e-001 0 0 0
-1.525113e-002 -1.303416e-001 -9.846697e-001 0 0 0
-2.670920e-002 -1.226670e-001 -9.835891e-001 0 0 0
-3.919757e-002 -1.141554e-001 -9.784195e-001 0 0 0
-4.978010e-002 -1.065210e-001 -9.709624e-001 0 0 0
-5.595489e-002 -1.000700e-001 -9.631935e-001 0 0 0
-6.174702e-002 -9.301382e-002 -9.536643e-001 0 0 0
-6.548573e-002 -8.563788e-002 -9.449533e-001 0 0 0
-6.725473e-002 -8.000341e-002 -9.379580e-001 0 0 0
-6.784283e-002 -7.510841e-002 -9.311664e-001 0 0 0
-6.802539e-002 -7.242536e-002 -9.235805e-001 0 0 0
-6.824226e-002 -6.910153e-002 -9.160689e-001 0 0 0
-6.989309e-002 -6.456068e-002 -9.080401e-001 0 0 0
-7.217192e-002 -5.902530e-002 -8.963038e-001 0 0 0
-7.380261e-002 -5.154625e-002 -8.833810e-001 0 0 0
-7.369323e-002 -4.238940e-002 -8.687106e-001 0 0 0
-7.338233e-002 -3.304501e-002 -8.555299e-001 0 0 0
-7.244755e-002 -2.405858e-002 -8.456835e-001 0 0 0
-7.138365e-002 -1.490759e-002 -8.362659e-001 0 0 0
-6.881272e-002 -5.878828e-003 -8.285998e-001 0 0 0
-6.425747e-002 5.178172e-003 -8.182765e-001 0 0 0
-5.861443e-002 1.254836e-002 -8.101474e-001 0 0 0
-5.284594e-002 1.056898e-002 -8.063384e-001 0 0 0
-4.624508e-002 4.271248e-003 -8.030923e-001 0 0 0
-4.186098e-002 -2.589996e-003 -8.002088e-001 0 0 0
-3.536728e-002 -1.128311e-002 -7.976230e-001 0 0 0
-2.822942e-002 -2.196608e-002 -7.981735e-001 0 0 0
-2.157787e-002 -3.227080e-002 -8.014280e-001 0 0 0
-1.455464e-002 -4.169053e-002 -8.068900e-001 0 0 0
-7.931710e-003 -5.077204e-002 -8.137675e-001 0 0 0
-2.853164e-003 -5.933505e-002 -8.215628e-001 0 0 0
2.761790e-003 -6.763609e-002 -8.299564e-001 0 0 0
9.306156e-003 -7.718204e-002 -8.407537e-001 0 0 0
1.648099e-002 -8.647112e-002 -8.529525e-001 0 0 0
2.396608e-002 -9.354146e-002 -8.638393e-001 0 0 0
3.396905e-002 -1.013162e-001 -8.733880e-001 0 0 0
3.977114e-002 -1.090788e-001 -8.845394e-001 0 0 0
4.422823e-002 -1.166254e-001 -8.975988e-001 0 0 0
4.793341e-002 -1.224481e-001 -9.116698e-001 0 0 0
5.322308e-002 -1.262960e-001 -9.260306e-001 0 0 0
5.921596e-002 -1.280289e-001 -9.378329e-001 0 0 0
6.546941e-002 -1.302029e-001 -9.514477e-001 0 0 0
7.215483e-002 -1.328229e-001 -9.636118e-001 0 0 0
7.936765e-002 -1.359715e-001 -9.745007e-001 0 0 0
8.781491e-002 -1.402683e-001 -9.834353e-001 0 0 0
9.629512e-002 -1.446504e-001 -9.901660e-001 0 0 0
1.062502e-001 -1.491764e-001 -9.945606e-001 0 0 0
1.176618e-001 -1.527732e-001 -9.959597e-001 0 0 0
1.280912e-001 -1.548112e-001 -9.944634e-001 0 0 0
1.408937e-001 -1.553500e-001 -9.887098e-001 0 0 0
1.509197e-001 -1.504604e-001 -9.650724e-001 0 0 0
1.415258e-001 -1.536319e-001 -9.637075e-001 0 0 0
1.287547e-001 -1.575859e-001 -9.663112e-001 0 0 0
1.165143e-001 -1.582459e-001 -9.713841e-001 0 0 0
1.059994e-001 -1.588499e-001 -9.788916e-001 0 0 0
9.477635e-002 -1.557373e-001 -9.851031e-001 0 0 0
8.276539e-002 -1.526259e-001 -9.914431e-001 0 0 0
6.904010e-002 -1.491123e-001 -9.975964e-001 0 0 0
5.331695e-002 -1.421881e-001 -1.002269e+000 0 0 0
3.900006e-002 -1.338306e-001 -1.006197e+000 0 0 0
2.733414e-002 -1.222266e-001 -1.006366e+000 0 0 0
1.738117e-002 -1.101636e-001 -1.003066e+000 0 0 0
7.079744e-003 -9.827864e-002 -1.000290e+000 0 0 0
1.287420e-003 -8.597935e-002 -9.978946e-001 0 0 0
-2.049247e-003 -7.344763e-002 -9.947601e-001 0 0 0
-4.555212e-003 -6.073634e-002 -9.929432e-001 0 0 0
-5.540219e-003 -4.995380e-002 -9.918300e-001 0 0 0
-5.932886e-003 -3.914098e-002 -9.897487e-001 0 0 0
-6.017527e-003 -2.985387e-002 -9.875609e-001 0 0 0
-7.580944e-003 -2.169677e-002 -9.820017e-001 0 0 0
-6.324720e-003 -1.406440e-002 -9.800469e-001 0 0 0
-7.545316e-003 -9.636840e-003 -9.721650e-001 0 0 0
-2.573165e-003 -1.840987e-002 -9.607266e-001 0 0 0
7.401883e-003 -3.518041e-002 -9.483743e-001 0 0 0
1.509135e-002 -4.725191e-002 -9.367592e-001 0 0 0
2.472155e-002 -5.827590e-002 -9.291191e-001 0 0 0
2.684888e-002 -6.565336e-002 -9.209693e-001 0 0 0
2.548056e-002 -7.066311e-002 -9.102426e-001 0 0 0
1.852078e-002 -7.343741e-002 -8.999169e-001 0 0 0
5.036318e-003 -7.078151e-002 -8.865348e-001 0 0 0
-1.104338e-002 -6.209482e-002 -8.700760e-001 0 0 0
-2.203032e-002 -5.146606e-002 -8.555559e-001 0 0 0
-3.108920e-002 -3.809958e-002 -8.437292e-001 0 0 0
-4.032372e-002 -2.031246e-002 -8.322816e-001 0 0 0
-4.572998e-002 -2.833711e-003 -8.240900e-001 0 0 0
-4.842965e-002 1.368505e-002 -8.200505e-001 0 0 0
-4.794434e-002 2.622674e-002 -8.198436e-001 0 0 0
-4.663890e-002 3.648830e-002 -8.252533e-001 0 0 0
-4.357228e-002 4.524265e-002 -8.357403e-001 0 0 0
-3.702908e-002 4.547714e-002 -8.514543e-001 0 0 0
-2.730905e-002 3.356396e-002 -8.601291e-001 0 0 0
-1.880784e-002 1.736948e-002 -8.600226e-001 0 0 0
-1.246973e-002 1.548667e-003 -8.575011e-001 0 0 0
-1.612304e-002 -9.101468e-003 -8.557789e-001 0 0 0
-2.537099e-002 -1.401548e-002 -8.548691e-001 0 0 0
-3.648500e-002 -1.428831e-002 -8.579618e-001 0 0 0
-4.776614e-002 -7.820771e-003 -8.608202e-001 0 0 0
-5.361828e-002 1.050153e-003 -8.599925e-001 0 0 0
-5.655929e-002 1.318919e-002 -8.552002e-001 0 0 0
-5.554773e-002 2.672692e-002 -8.453609e-001 0 0 0
-5.461389e-002 3.926511e-002 -8.335517e-001 0 0 0
-5.109484e-002 4.711940e-002 -8.195144e-001 0 0 0
-4.744362e-002 5.033284e-002 -8.081998e-001 0 0 0
-4.295906e-002 5.137798e-002 -7.983111e-001 0 0 0
-3.756094e-002 5.303695e-002 -7.891401e-001 0 0 0
-3.227209e-002 5.510480e-002 -7.844064e-001 0 0 0
-2.768688e-002 5.824382e-002 -7.813342e-001 0 0 0
-2.382791e-002 5.713432e-002 -7.762123e-001 0 0 0
-2.316704e-002 4.764436e-002 -7.707425e-001 0 0 0
-2.728582e-002 3.394772e-002 -7.668517e-001 0 0 0
-3.247457e-002 2.107088e-002 -7.648747e-001 0 0 0
-4.056608e-002 6.680867e-003 -7.698885e-001 0 0 0
-4.936223e-002 -3.632475e-003 -7.753964e-001 0 0 0
-5.887913e-002 -1.591554e-002 -7.827228e-001 0 0 0
-6.501134e-002 -2.997704e-002 -7.878371e-001 0 0 0
-6.667946e-002 -5.118554e-002 -7.966306e-001 0 0 0
-6.612829e-002 -6.623582e-002 -8.016741e-001 0 0 0
-6.153333e-002 -8.264316e-002 -8.080838e-001 0 0 0
-5.662523e-002 -9.493149e-002 -8.145829e-001 0 0 0
-5.308929e-002 -1.035124e-001 -8.208310e-001 0 0 0
-4.861650e-002 -1.113606e-001 -8.273186e-001 0 0 0
-4.501092e-002 -1.173809e-001 -8.331239e-001 0 0 0
-4.029969e-002 -1.225526e-001 -8.383558e-001 0 0 0
-3.663169e-002 -1.273610e-001 -8.432068e-001 0 0 0
-3.363449e-002 -1.314668e-001 -8.482497e-001 0 0 0
-3.186173e-002 -1.352788e-001 -8.541182e-001 0 0 0
-1.368462e-001 2.892532e-002 -2.480939e-001 0 255 0
-1.266565e-001 2.686324e-002 -2.970011e-001 255 255 0
-5.841375e-001 -4.056810e-003 -4.717450e-001 255 0 0
-5.424897e-001 -5.601144e-004 -4.991900e-001 255 255 0
3.934730e-001 -4.262697e-001 -9.809404e-001 0 255 0
3.604185e-001 -3.889281e-001 -9.773340e-001 255 255 0
-1.071811e-001 -4.396865e-001 -1.183882e+000 255 0 0
-1.030118e-001 -3.994118e-001 -1.154546e+000 255 255 0
