ply
format ascii 1.0
element face 0
property list uchar int vertex_indices
element vertex 145
property float x
property float y
property float z
property uchar diffuse_red
property uchar diffuse_green
property uchar diffuse_blue
end_header
3.029670e-002 -6.085932e-002 -9.544935e-001 0 0 0
3.002054e-002 -6.492732e-002 -9.558863e-001 0 0 0
2.974025e-002 -7.498976e-002 -9.546425e-001 0 0 0
2.959046e-002 -8.496875e-002 -9.513533e-001 0 0 0
2.675490e-002 -9.486700e-002 -9.482662e-001 0 0 0
2.259906e-002 -1.024325e-001 -9.450662e-001 0 0 0
1.851154e-002 -1.111697e-001 -9.432063e-001 0 0 0
1.753101e-002 -1.217390e-001 -9.416371e-001 0 0 0
1.941594e-002 -1.288989e-001 -9.414706e-001 0 0 0
2.070557e-002 -1.346075e-001 -9.439776e-001 0 0 0
2.256590e-002 -1.376542e-001 -9.479299e-001 0 0 0
2.272123e-002 -1.401059e-001 -9.530491e-001 0 0 0
1.798536e-002 -1.405294e-001 -9.588724e-001 0 0 0
1.075886e-002 -1.396939e-001 -9.663782e-001 0 0 0
4.319622e-004 -1.369901e-001 -9.703373e-001 0 0 0
-9.272979e-003 -1.327880e-001 -9.759360e-001 0 0 0
-2.262598e-002 -1.267116e-001 -9.773167e-001 0 0 0
-3.349699e-002 -1.199817e-001 -9.791619e-001 0 0 0
-4.550647e-002 -1.129905e-001 -9.760265e-001 0 0 0
-5.401448e-002 -1.072406e-001 -9.719644e-001 0 0 0
-6.010701e-002 -1.014999e-001 -9.654835e-001 0 0 0
-6.502596e-002 -9.572608e-002 -9.586640e-001 0 0 0
-6.814878e-002 -8.934578e-002 -9.516238e-001 0 0 0
-6.903769e-002 -8.423800e-002 -9.458811e-001 0 0 0
-6.929583e-002 -7.967273e-002 -9.397898e-001 0 0 0
-6.813428e-002 -7.734468e-002 -9.337296e-001 0 0 0
-6.807468e-002 -7.453765e-002 -9.268274e-001 0 0 0
-6.898622e-002 -7.031611e-002 -9.192131e-001 0 0 0
-6.978149e-002 -6.582682e-002 -9.104478e-001 0 0 0
-7.027258e-002 -5.917376e-002 -9.001346e-001 0 0 0
-6.902083e-002 -5.024533e-002 -8.836939e-001 0 0 0
-6.723900e-002 -4.106807e-002 -8.724857e-001 0 0 0
-6.525652e-002 -3.168705e-002 -8.624891e-001 0 0 0
-6.352785e-002 -2.266942e-002 -8.535678e-001 0 0 0
-5.977669e-002 -1.303626e-002 -8.463965e-001 0 0 0
-5.453405e-002 -1.620537e-003 -8.349523e-001 0 0 0
-4.728654e-002 6.417172e-003 -8.266851e-001 0 0 0
-4.101540e-002 4.445413e-003 -8.222705e-001 0 0 0
-3.273857e-002 -2.262681e-003 -8.186607e-001 0 0 0
-2.778459e-002 -9.378185e-003 -8.161956e-001 0 0 0
-1.992832e-002 -1.876673e-002 -8.132920e-001 0 0 0
-1.179936e-002 -2.975607e-002 -8.135712e-001 0 0 0
-5.097539e-003 -4.035780e-002 -8.164135e-001 0 0 0
1.718101e-003 -4.958545e-002 -8.211351e-001 0 0 0
7.166906e-003 -5.823001e-002 -8.270179e-001 0 0 0
1.146169e-002 -6.646626e-002 -8.340708e-001 0 0 0
1.686996e-002 -7.433796e-002 -8.420252e-001 0 0 0
2.180253e-002 -8.300055e-002 -8.520770e-001 0 0 0
2.745305e-002 -9.134415e-002 -8.619880e-001 0 0 0
3.219627e-002 -9.684234e-002 -8.698755e-001 0 0 0
4.158659e-002 -1.034282e-001 -8.785101e-001 0 0 0
4.586228e-002 -1.099425e-001 -8.877842e-001 0 0 0
4.759690e-002 -1.160549e-001 -8.982461e-001 0 0 0
4.959535e-002 -1.202047e-001 -9.103229e-001 0 0 0
5.219821e-002 -1.222940e-001 -9.213898e-001 0 0 0
5.594228e-002 -1.225949e-001 -9.304573e-001 0 0 0
5.970093e-002 -1.228900e-001 -9.406615e-001 0 0 0
6.325973e-002 -1.238514e-001 -9.490309e-001 0 0 0
6.896043e-002 -1.256144e-001 -9.573013e-001 0 0 0
7.425763e-002 -1.278996e-001 -9.624982e-001 0 0 0
8.190782e-002 -1.310670e-001 -9.673222e-001 0 0 0
8.879140e-002 -1.335823e-001 -9.688701e-001 0 0 0
1.003793e-001 -1.363037e-001 -9.694172e-001 0 0 0
1.095837e-001 -1.375839e-001 -9.659349e-001 0 0 0
1.208024e-001 -1.373924e-001 -9.602121e-001 0 0 0
1.335517e-001 -1.343011e-001 -9.406471e-001 0 0 0
1.260308e-001 -1.383479e-001 -9.415959e-001 0 0 0
1.137068e-001 -1.422109e-001 -9.445872e-001 0 0 0
1.016108e-001 -1.437327e-001 -9.508785e-001 0 0 0
9.207168e-002 -1.441597e-001 -9.581009e-001 0 0 0
7.987718e-002 -1.422555e-001 -9.649543e-001 0 0 0
6.981250e-002 -1.396840e-001 -9.704294e-001 0 0 0
5.510115e-002 -1.359385e-001 -9.776444e-001 0 0 0
4.113272e-002 -1.312053e-001 -9.821156e-001 0 0 0
2.575811e-002 -1.230300e-001 -9.875660e-001 0 0 0
1.597990e-002 -1.139125e-001 -9.885941e-001 0 0 0
5.724279e-003 -1.024061e-001 -9.872111e-001 0 0 0
-3.971636e-003 -9.226461e-002 -9.854368e-001 0 0 0
-9.153014e-003 -8.095593e-002 -9.845362e-001 0 0 0
-1.243792e-002 -6.901586e-002 -9.812774e-001 0 0 0
-1.502647e-002 -5.711187e-002 -9.800637e-001 0 0 0
-1.616989e-002 -4.673038e-002 -9.788306e-001 0 0 0
-1.661636e-002 -3.632519e-002 -9.767552e-001 0 0 0
-1.670222e-002 -2.738577e-002 -9.746186e-001 0 0 0
-1.771374e-002 -1.973881e-002 -9.700942e-001 0 0 0
-1.648783e-002 -1.229997e-002 -9.680239e-001 0 0 0
-1.672891e-002 -8.320439e-003 -9.617425e-001 0 0 0
-9.734021e-003 -1.705311e-002 -9.526231e-001 0 0 0
1.598406e-003 -3.373804e-002 -9.406492e-001 0 0 0
1.109586e-002 -4.551766e-002 -9.320848e-001 0 0 0
2.262222e-002 -5.704527e-002 -9.246715e-001 0 0 0
2.583712e-002 -6.430153e-002 -9.183013e-001 0 0 0
2.674164e-002 -7.045599e-002 -9.099036e-001 0 0 0
2.119907e-002 -7.433446e-002 -9.018148e-001 0 0 0
9.652922e-003 -7.321664e-002 -8.920743e-001 0 0 0
-3.916696e-003 -6.669506e-002 -8.794296e-001 0 0 0
-1.328867e-002 -5.717212e-002 -8.668612e-001 0 0 0
-2.163732e-002 -4.468122e-002 -8.569544e-001 0 0 0
-2.963912e-002 -2.697643e-002 -8.469162e-001 0 0 0
-3.474517e-002 -8.698615e-003 -8.387440e-001 0 0 0
-3.767199e-002 8.681021e-003 -8.347781e-001 0 0 0
-3.752127e-002 2.203739e-002 -8.343271e-001 0 0 0
-3.777156e-002 3.260241e-002 -8.370102e-001 0 0 0
-3.613074e-002 4.250649e-002 -8.471001e-001 0 0 0
-3.137815e-002 4.321296e-002 -8.604754e-001 0 0 0
-2.211480e-002 3.103380e-002 -8.675972e-001 0 0 0
-1.272194e-002 1.485429e-002 -8.683153e-001 0 0 0
-5.894176e-003 -1.366349e-003 -8.655078e-001 0 0 0
-8.531260e-003 -1.275748e-002 -8.647248e-001 0 0 0
-1.725449e-002 -1.855090e-002 -8.654556e-001 0 0 0
-2.971961e-002 -1.892872e-002 -8.691194e-001 0 0 0
-4.192630e-002 -1.272693e-002 -8.732763e-001 0 0 0
-4.863076e-002 -3.750855e-003 -8.723600e-001 0 0 0
-5.095876e-002 8.847640e-003 -8.681254e-001 0 0 0
-4.938759e-002 2.269103e-002 -8.584139e-001 0 0 0
-4.709702e-002 3.602709e-002 -8.460374e-001 0 0 0
-4.188866e-002 4.389237e-002 -8.329693e-001 0 0 0
-3.679623e-002 4.722216e-002 -8.215002e-001 0 0 0
-3.073959e-002 4.852769e-002 -8.120868e-001 0 0 0
-2.314885e-002 5.006045e-002 -8.023998e-001 0 0 0
-1.694810e-002 5.265893e-002 -7.972945e-001 0 0 0
-1.197838e-002 5.613019e-002 -7.940440e-001 0 0 0
-7.286416e-003 5.501665e-002 -7.888550e-001 0 0 0
-4.884455e-003 4.462850e-002 -7.837416e-001 0 0 0
-8.579296e-003 2.922487e-002 -7.804729e-001 0 0 0
-1.239599e-002 1.547353e-002 -7.803799e-001 0 0 0
-2.168928e-002 -4.396894e-004 -7.861388e-001 0 0 0
-3.128181e-002 -1.203223e-002 -7.928916e-001 0 0 0
-4.258307e-002 -2.538045e-002 -8.011681e-001 0 0 0
-4.909103e-002 -4.077784e-002 -8.080387e-001 0 0 0
-5.163676e-002 -6.376468e-002 -8.180600e-001 0 0 0
-5.113551e-002 -7.949147e-002 -8.231571e-001 0 0 0
-4.675893e-002 -9.668739e-002 -8.295038e-001 0 0 0
-4.202986e-002 -1.093259e-001 -8.356082e-001 0 0 0
-3.866158e-002 -1.174979e-001 -8.413047e-001 0 0 0
-3.461659e-002 -1.249828e-001 -8.472754e-001 0 0 0
-3.145781e-002 -1.304574e-001 -8.522342e-001 0 0 0
-2.708396e-002 -1.350484e-001 -8.568927e-001 0 0 0
-2.385203e-002 -1.393166e-001 -8.609711e-001 0 0 0
-2.117594e-002 -1.428015e-001 -8.656868e-001 0 0 0
-2.006131e-002 -1.460387e-001 -8.709492e-001 0 0 0
-5.834987e-002 -1.863032e-003 -8.855061e-002 0 255 0
-5.479437e-002 -1.725106e-003 -1.384238e-001 255 255 0
-8.568983e-001 -7.375123e-002 -4.143184e-001 255 0 0
-8.128249e-001 -6.775328e-002 -4.371561e-001 255 255 0
