ply
format ascii 1.0
element face 0
property list uchar int vertex_indices
element vertex 70
property float x
property float y
property float z
property uchar diffuse_red
property uchar diffuse_green
property uchar diffuse_blue
end_header
2.142328e-001 -8.732698e-002 -9.336961e-001 0 0 0
2.025493e-001 -9.372243e-002 -9.359196e-001 0 0 0
1.897570e-001 -1.023083e-001 -9.338333e-001 0 0 0
1.797341e-001 -1.121629e-001 -9.282624e-001 0 0 0
1.666710e-001 -1.219852e-001 -9.209061e-001 0 0 0
1.522448e-001 -1.283127e-001 -9.134076e-001 0 0 0
1.425075e-001 -1.311498e-001 -9.066600e-001 0 0 0
1.292801e-001 -1.308449e-001 -9.010381e-001 0 0 0
1.174768e-001 -1.272311e-001 -8.979019e-001 0 0 0
1.044112e-001 -1.179930e-001 -8.915858e-001 0 0 0
9.286310e-002 -1.008096e-001 -8.822858e-001 0 0 0
8.728650e-002 -8.182350e-002 -8.745085e-001 0 0 0
8.441858e-002 -5.872934e-002 -8.660646e-001 0 0 0
8.520923e-002 -3.966634e-002 -8.565188e-001 0 0 0
8.848231e-002 -2.452931e-002 -8.496510e-001 0 0 0
9.284700e-002 -1.531000e-002 -8.389310e-001 0 0 0
1.000391e-001 -1.175862e-002 -8.280382e-001 0 0 0
1.073411e-001 -1.678198e-002 -8.168835e-001 0 0 0
1.121824e-001 -2.510133e-002 -8.080898e-001 0 0 0
1.135391e-001 -3.705489e-002 -8.030723e-001 0 0 0
1.110918e-001 -5.244111e-002 -8.074500e-001 0 0 0
1.089345e-001 -6.771465e-002 -8.143133e-001 0 0 0
1.047466e-001 -8.122762e-002 -8.237217e-001 0 0 0
9.829266e-002 -8.997672e-002 -8.349428e-001 0 0 0
9.214862e-002 -9.495226e-002 -8.531236e-001 0 0 0
8.615355e-002 -9.694580e-002 -8.678454e-001 0 0 0
8.146615e-002 -9.497153e-002 -8.839218e-001 0 0 0
7.805208e-002 -9.010091e-002 -8.957695e-001 0 0 0
7.564524e-002 -8.295809e-002 -9.083080e-001 0 0 0
7.528997e-002 -7.571155e-002 -9.184187e-001 0 0 0
7.782966e-002 -6.882895e-002 -9.270981e-001 0 0 0
8.308086e-002 -6.118533e-002 -9.357024e-001 0 0 0
8.976636e-002 -5.736233e-002 -9.410706e-001 0 0 0
9.700647e-002 -5.693389e-002 -9.459814e-001 0 0 0
1.048788e-001 -6.271952e-002 -9.492507e-001 0 0 0
1.117891e-001 -7.449424e-002 -9.493145e-001 0 0 0
1.177472e-001 -8.949868e-002 -9.471183e-001 0 0 0
1.214736e-001 -1.051386e-001 -9.465350e-001 0 0 0
1.231770e-001 -1.173279e-001 -9.460413e-001 0 0 0
1.234263e-001 -1.248834e-001 -9.485475e-001 0 0 0
1.239372e-001 -1.261568e-001 -9.545055e-001 0 0 0
1.237529e-001 -1.208035e-001 -9.626218e-001 0 0 0
1.258847e-001 -1.160696e-001 -9.698643e-001 0 0 0
1.291966e-001 -1.121883e-001 -9.759243e-001 0 0 0
1.323205e-001 -1.174124e-001 -9.823964e-001 0 0 0
1.348613e-001 -1.271052e-001 -9.827230e-001 0 0 0
1.431512e-001 -1.423798e-001 -9.786909e-001 0 0 0
1.510385e-001 -1.535273e-001 -9.712307e-001 0 0 0
1.622450e-001 -1.633133e-001 -9.656609e-001 0 0 0
1.736887e-001 -1.664074e-001 -9.642992e-001 0 0 0
1.830848e-001 -1.645968e-001 -9.616247e-001 0 0 0
1.956520e-001 -1.589980e-001 -9.615326e-001 0 0 0
2.051552e-001 -1.516620e-001 -9.618842e-001 0 0 0
2.123406e-001 -1.429586e-001 -9.603396e-001 0 0 0
2.170480e-001 -1.368272e-001 -9.578908e-001 0 0 0
2.208105e-001 -1.345115e-001 -9.555837e-001 0 0 0
2.284913e-001 -1.355951e-001 -9.456334e-001 0 0 0
2.338757e-001 -1.399195e-001 -9.351838e-001 0 0 0
2.416903e-001 -1.454132e-001 -9.271121e-001 0 0 0
2.455900e-001 -1.508485e-001 -9.206018e-001 0 0 0
2.496517e-001 -1.521369e-001 -9.169815e-001 0 0 0
2.563460e-001 -1.456075e-001 -9.134062e-001 0 0 0
2.576203e-001 -1.378124e-001 -9.142727e-001 0 0 0
2.582632e-001 -1.283960e-001 -9.145729e-001 0 0 0
2.572956e-001 -1.190273e-001 -9.166043e-001 0 0 0
2.576528e-001 -1.047376e-001 -9.169227e-001 0 0 0
2.746249e-002 5.692324e-003 1.138907e-002 0 255 0
2.594782e-002 5.465365e-003 -3.858746e-002 255 255 0
-7.960421e-001 -2.747619e-001 -5.831892e-001 255 0 0
-7.537782e-001 -2.617798e-001 -6.065394e-001 255 255 0
