ply
format ascii 1.0
element face 0
property list uchar int vertex_indices
element vertex 76
property float x
property float y
property float z
property uchar diffuse_red
property uchar diffuse_green
property uchar diffuse_blue
end_header
2.292567e-001 -9.301807e-002 -9.522000e-001 0 0 0
2.128598e-001 -9.918674e-002 -9.497298e-001 0 0 0
1.973840e-001 -1.066769e-001 -9.443646e-001 0 0 0
1.817860e-001 -1.158412e-001 -9.331157e-001 0 0 0
1.638027e-001 -1.235452e-001 -9.202112e-001 0 0 0
1.442616e-001 -1.277833e-001 -9.064435e-001 0 0 0
1.310055e-001 -1.290397e-001 -8.961210e-001 0 0 0
1.145448e-001 -1.266429e-001 -8.862735e-001 0 0 0
1.004171e-001 -1.215334e-001 -8.796716e-001 0 0 0
8.526822e-002 -1.103838e-001 -8.708441e-001 0 0 0
7.184885e-002 -9.159020e-002 -8.591083e-001 0 0 0
6.528326e-002 -7.212419e-002 -8.506377e-001 0 0 0
6.163526e-002 -4.923656e-002 -8.417164e-001 0 0 0
6.180215e-002 -3.040187e-002 -8.333790e-001 0 0 0
6.426308e-002 -1.567047e-002 -8.263833e-001 0 0 0
6.753942e-002 -6.756103e-003 -8.168776e-001 0 0 0
7.247590e-002 -3.789632e-003 -8.048422e-001 0 0 0
7.687123e-002 -9.041943e-003 -7.926497e-001 0 0 0
7.917612e-002 -1.722795e-002 -7.832088e-001 0 0 0
7.864924e-002 -2.863094e-002 -7.771676e-001 0 0 0
7.561320e-002 -4.350502e-002 -7.802801e-001 0 0 0
7.398447e-002 -5.809225e-002 -7.861252e-001 0 0 0
7.140943e-002 -7.053654e-002 -7.946709e-001 0 0 0
6.731796e-002 -7.889805e-002 -8.068447e-001 0 0 0
6.395756e-002 -8.450347e-002 -8.249209e-001 0 0 0
6.192560e-002 -8.659673e-002 -8.427679e-001 0 0 0
6.025463e-002 -8.509180e-002 -8.590570e-001 0 0 0
6.022947e-002 -8.046369e-002 -8.738742e-001 0 0 0
6.036370e-002 -7.416681e-002 -8.873311e-001 0 0 0
6.287136e-002 -6.739507e-002 -9.009600e-001 0 0 0
6.802952e-002 -6.108954e-002 -9.132165e-001 0 0 0
7.614560e-002 -5.438657e-002 -9.253824e-001 0 0 0
8.562889e-002 -5.086585e-002 -9.353517e-001 0 0 0
9.580756e-002 -5.118252e-002 -9.434947e-001 0 0 0
1.050400e-001 -5.801075e-002 -9.485867e-001 0 0 0
1.121611e-001 -7.096436e-002 -9.496036e-001 0 0 0
1.175300e-001 -8.695268e-002 -9.462844e-001 0 0 0
1.199593e-001 -1.032112e-001 -9.447379e-001 0 0 0
1.211992e-001 -1.158985e-001 -9.430037e-001 0 0 0
1.215158e-001 -1.243266e-001 -9.454380e-001 0 0 0
1.234738e-001 -1.260351e-001 -9.528593e-001 0 0 0
1.267460e-001 -1.214459e-001 -9.652673e-001 0 0 0
1.314391e-001 -1.172519e-001 -9.752086e-001 0 0 0
1.373147e-001 -1.140360e-001 -9.847073e-001 0 0 0
1.428348e-001 -1.205203e-001 -9.943850e-001 0 0 0
1.447851e-001 -1.311976e-001 -9.944418e-001 0 0 0
1.512052e-001 -1.471665e-001 -9.888408e-001 0 0 0
1.592012e-001 -1.599246e-001 -9.809479e-001 0 0 0
1.703949e-001 -1.710960e-001 -9.752202e-001 0 0 0
1.824940e-001 -1.757889e-001 -9.740486e-001 0 0 0
1.945516e-001 -1.745981e-001 -9.749472e-001 0 0 0
2.095797e-001 -1.709142e-001 -9.778384e-001 0 0 0
2.213291e-001 -1.643581e-001 -9.807645e-001 0 0 0
2.312958e-001 -1.557931e-001 -9.821511e-001 0 0 0
2.369343e-001 -1.495551e-001 -9.809568e-001 0 0 0
2.404161e-001 -1.469402e-001 -9.773050e-001 0 0 0
2.462240e-001 -1.481217e-001 -9.678306e-001 0 0 0
2.502640e-001 -1.524705e-001 -9.551227e-001 0 0 0
2.551766e-001 -1.579488e-001 -9.439080e-001 0 0 0
2.575449e-001 -1.636898e-001 -9.352492e-001 0 0 0
2.607604e-001 -1.654055e-001 -9.308917e-001 0 0 0
2.680705e-001 -1.593844e-001 -9.281947e-001 0 0 0
2.707985e-001 -1.509267e-001 -9.304585e-001 0 0 0
2.730512e-001 -1.406630e-001 -9.323305e-001 0 0 0
2.733177e-001 -1.309629e-001 -9.354260e-001 0 0 0
2.764178e-001 -1.163158e-001 -9.379836e-001 0 0 0
2.550283e-001 -7.928358e-002 -9.530210e-001 0 0 0
1.412600e-001 -1.151075e-001 -9.905796e-001 0 0 0
-1.048327e-001 1.356593e-002 -1.883908e-001 0 255 0
-9.829353e-002 1.357689e-002 -2.379613e-001 255 255 0
-6.465237e-001 -1.373954e-001 -4.868635e-001 255 0 0
-6.083428e-001 -1.303272e-001 -5.183636e-001 255 255 0
5.660871e-001 -4.581900e-001 -9.408697e-001 0 255 0
5.320474e-001 -4.217146e-001 -9.375768e-001 255 255 0
8.818117e-002 -5.657536e-001 -1.204270e+000 255 0 0
8.269074e-002 -5.221115e-001 -1.180496e+000 255 255 0
