ply
format ascii 1.0
element face 0
property list uchar int vertex_indices
element vertex 472
property float x
property float y
property float z
property uchar diffuse_red
property uchar diffuse_green
property uchar diffuse_blue
end_header
1.396123e-001 -8.503030e-002 -9.557411e-001 0 0 0
1.331384e-001 -8.947558e-002 -9.356403e-001 0 0 0
1.288175e-001 -8.982568e-002 -9.168459e-001 0 0 0
1.192961e-001 -8.629595e-002 -8.885428e-001 0 0 0
1.076578e-001 -8.109479e-002 -8.637227e-001 0 0 0
9.199585e-002 -7.406828e-002 -8.393464e-001 0 0 0
8.276421e-004 -3.028167e-002 -7.534817e-001 0 0 0
-2.382871e-002 -2.153477e-002 -7.465392e-001 0 0 0
-4.093630e-002 -1.590163e-002 -7.430833e-001 0 0 0
-8.998163e-002 -1.533897e-002 -7.541728e-001 0 0 0
-1.182290e-001 -2.295556e-003 -7.544507e-001 0 0 0
-1.301336e-001 1.267086e-002 -7.402059e-001 0 0 0
-1.357004e-001 2.789624e-002 -7.146930e-001 0 0 0
-1.355124e-001 4.926173e-002 -6.718892e-001 0 0 0
-1.002154e-001 8.462937e-002 -5.985859e-001 0 0 0
-7.560590e-002 9.131529e-002 -5.779010e-001 0 0 0
-2.471765e-002 9.239239e-002 -5.736088e-001 0 0 0
-2.022113e-003 8.761922e-002 -5.850893e-001 0 0 0
2.073026e-002 7.969510e-002 -6.090369e-001 0 0 0
3.100409e-002 7.055159e-002 -6.521183e-001 0 0 0
2.670901e-002 6.254038e-002 -7.008441e-001 0 0 0
9.043084e-003 5.284055e-002 -7.347306e-001 0 0 0
-9.999794e-003 4.447940e-002 -7.768986e-001 0 0 0
-3.751405e-002 3.735274e-002 -8.046109e-001 0 0 0
-6.437806e-002 3.532577e-002 -8.127667e-001 0 0 0
-8.978152e-002 4.073232e-002 -8.405991e-001 0 0 0
-1.472327e-001 4.278273e-002 -8.513181e-001 0 0 0
-1.431788e-001 1.889105e-002 -8.472496e-001 0 0 0
-1.336112e-001 -1.507934e-002 -8.492383e-001 0 0 0
-1.143061e-001 -5.568373e-002 -8.509268e-001 0 0 0
-8.679562e-002 -9.357957e-002 -8.516819e-001 0 0 0
-6.069671e-002 -1.188552e-001 -8.517143e-001 0 0 0
-2.694127e-002 -1.371077e-001 -8.511925e-001 0 0 0
4.058484e-003 -1.472251e-001 -8.436999e-001 0 0 0
2.500941e-002 -1.476039e-001 -8.302136e-001 0 0 0
4.520315e-002 -1.440089e-001 -8.207796e-001 0 0 0
5.747731e-002 -1.374502e-001 -8.131240e-001 0 0 0
6.832666e-002 -1.310906e-001 -8.072250e-001 0 0 0
6.850560e-002 -1.211324e-001 -7.920546e-001 0 0 0
6.062691e-002 -1.112392e-001 -7.859470e-001 0 0 0
4.708931e-002 -1.049151e-001 -7.870468e-001 0 0 0
2.408016e-002 -1.014791e-001 -7.939745e-001 0 0 0
2.975890e-003 -1.014594e-001 -8.089187e-001 0 0 0
-2.110845e-002 -1.005440e-001 -8.191451e-001 0 0 0
-3.557560e-002 -1.039150e-001 -8.545573e-001 0 0 0
-5.782628e-002 -1.058366e-001 -8.726632e-001 0 0 0
-7.474509e-002 -1.053348e-001 -8.875659e-001 0 0 0
-8.411919e-002 -1.004842e-001 -9.031884e-001 0 0 0
-9.441664e-002 -8.571486e-002 -9.128499e-001 0 0 0
-1.064038e-001 2.832143e-002 -8.945699e-001 0 0 0
-1.078714e-001 4.300239e-002 -8.769508e-001 0 0 0
-1.135672e-001 5.397578e-002 -8.609161e-001 0 0 0
-1.202191e-001 5.938376e-002 -8.418861e-001 0 0 0
-1.294132e-001 6.247795e-002 -8.266404e-001 0 0 0
-1.371747e-001 6.587840e-002 -8.130345e-001 0 0 0
-1.467232e-001 7.025773e-002 -8.020991e-001 0 0 0
-1.584341e-001 7.552956e-002 -7.909448e-001 0 0 0
-2.554188e-001 1.204036e-001 -7.130247e-001 0 0 0
-2.654053e-001 1.288470e-001 -6.895800e-001 0 0 0
4.312793e-002 1.071725e-001 -5.259374e-001 0 0 0
7.327880e-002 8.979238e-002 -5.684972e-001 0 0 0
8.433892e-002 7.852143e-002 -6.006282e-001 0 0 0
8.595541e-002 6.687460e-002 -6.217503e-001 0 0 0
8.609967e-002 5.783071e-002 -6.435790e-001 0 0 0
3.772280e-002 2.490764e-002 -7.390214e-001 0 0 0
1.557443e-002 2.447292e-002 -7.581207e-001 0 0 0
-1.387043e-002 2.610671e-002 -7.679520e-001 0 0 0
-3.834837e-002 2.842642e-002 -7.706741e-001 0 0 0
-6.664577e-002 3.060395e-002 -7.709698e-001 0 0 0
-9.408207e-002 3.196568e-002 -7.668794e-001 0 0 0
-2.376751e-001 6.063552e-002 -7.262090e-001 0 0 0
-2.671004e-001 7.124353e-002 -7.148774e-001 0 0 0
-2.680736e-001 1.286285e-001 -6.921031e-001 0 0 0
-2.478314e-001 6.350771e-002 -7.746348e-001 0 0 0
-2.284132e-001 5.934461e-002 -7.677216e-001 0 0 0
-2.006382e-001 5.559651e-002 -7.580777e-001 0 0 0
-1.770523e-001 5.217180e-002 -7.513277e-001 0 0 0
-1.658189e-001 4.936174e-002 -7.482871e-001 0 0 0
-1.567839e-001 4.608077e-002 -7.489611e-001 0 0 0
-1.525424e-001 4.503200e-002 -7.497408e-001 0 0 0
-1.512562e-001 4.350220e-002 -7.511229e-001 0 0 0
-1.497027e-001 4.159360e-002 -7.508597e-001 0 0 0
-1.467540e-001 3.839671e-002 -7.508142e-001 0 0 0
-1.413865e-001 3.531830e-002 -7.505591e-001 0 0 0
-1.310748e-001 3.403515e-002 -7.495273e-001 0 0 0
-1.195217e-001 3.548023e-002 -7.419797e-001 0 0 0
-1.126167e-001 3.736188e-002 -7.329699e-001 0 0 0
-1.056978e-001 4.025902e-002 -7.236662e-001 0 0 0
-1.012037e-001 4.321614e-002 -7.127593e-001 0 0 0
-8.821138e-002 6.910391e-002 -6.345316e-001 0 0 0
-9.108606e-002 7.107447e-002 -6.113142e-001 0 0 0
-9.312894e-002 7.086091e-002 -5.928231e-001 0 0 0
-9.380594e-002 7.152891e-002 -5.804820e-001 0 0 0
-9.228710e-002 7.423131e-002 -5.673784e-001 0 0 0
-8.778962e-002 7.680419e-002 -5.576976e-001 0 0 0
-3.599789e-002 -1.708191e-002 -5.111599e-001 0 0 0
-3.362157e-002 -1.331232e-002 -5.322989e-001 0 0 0
-3.283332e-002 -6.532292e-003 -5.506569e-001 0 0 0
-3.210455e-002 5.160147e-003 -5.836195e-001 0 0 0
-3.825435e-002 1.675030e-002 -6.156309e-001 0 0 0
-4.691837e-002 2.546219e-002 -6.376244e-001 0 0 0
-5.294102e-002 3.207653e-002 -6.584307e-001 0 0 0
-6.252307e-002 3.631290e-002 -6.687642e-001 0 0 0
-7.373954e-002 3.862764e-002 -6.764519e-001 0 0 0
-8.427954e-002 3.919501e-002 -6.861364e-001 0 0 0
-9.617904e-002 3.721271e-002 -6.943036e-001 0 0 0
-1.060078e-001 3.334851e-002 -7.112625e-001 0 0 0
-1.138584e-001 2.669656e-002 -7.256455e-001 0 0 0
-1.228154e-001 2.119330e-002 -7.416267e-001 0 0 0
-1.263574e-001 1.771699e-002 -7.526576e-001 0 0 0
-1.286219e-001 1.827285e-002 -7.599267e-001 0 0 0
-1.309613e-001 2.032480e-002 -7.652167e-001 0 0 0
-1.355312e-001 2.275374e-002 -7.677866e-001 0 0 0
-1.445236e-001 2.347545e-002 -7.631439e-001 0 0 0
-1.518886e-001 2.358171e-002 -7.538067e-001 0 0 0
-1.544260e-001 2.523433e-002 -7.400218e-001 0 0 0
-1.564326e-001 2.792694e-002 -7.284299e-001 0 0 0
-1.577453e-001 2.996644e-002 -7.178803e-001 0 0 0
-1.593830e-001 3.362847e-002 -7.057323e-001 0 0 0
-1.609834e-001 3.962563e-002 -6.954695e-001 0 0 0
-1.637960e-001 4.683186e-002 -6.846076e-001 0 0 0
-1.672791e-001 5.318058e-002 -6.760641e-001 0 0 0
-1.735061e-001 5.758444e-002 -6.661087e-001 0 0 0
-1.811604e-001 6.034484e-002 -6.557244e-001 0 0 0
-1.919926e-001 6.407164e-002 -6.438882e-001 0 0 0
-2.031652e-001 6.972493e-002 -6.360413e-001 0 0 0
-2.158796e-001 7.568043e-002 -6.321303e-001 0 0 0
-2.283046e-001 8.154589e-002 -6.295384e-001 0 0 0
-2.374834e-001 8.606852e-002 -6.274079e-001 0 0 0
-2.370119e-001 9.159612e-002 -6.177855e-001 0 0 0
-1.746676e-001 9.406769e-002 -6.125409e-001 0 0 0
-2.055280e-001 9.331757e-002 -6.306609e-001 0 0 0
-2.300798e-001 9.369726e-002 -6.407639e-001 0 0 0
-2.287778e-001 3.156789e-002 -6.458277e-001 0 0 0
-2.072075e-001 3.392287e-002 -6.513752e-001 0 0 0
-1.941092e-001 3.455595e-002 -6.588964e-001 0 0 0
-1.849724e-001 3.334958e-002 -6.693763e-001 0 0 0
-1.803783e-001 2.713989e-002 -6.818771e-001 0 0 0
-1.868350e-001 2.105601e-002 -6.921234e-001 0 0 0
-2.092542e-001 1.236344e-002 -6.986662e-001 0 0 0
-2.297246e-001 8.722310e-003 -7.024377e-001 0 0 0
-2.464812e-001 7.251041e-003 -7.026501e-001 0 0 0
-2.512324e-001 6.490755e-003 -7.004894e-001 0 0 0
-2.386048e-001 2.813716e-003 -6.951842e-001 0 0 0
-2.053460e-001 -2.682697e-003 -6.887428e-001 0 0 0
-1.754181e-001 -6.276946e-003 -6.778936e-001 0 0 0
-1.477967e-001 -7.694768e-003 -6.615773e-001 0 0 0
-1.266756e-001 -3.214762e-003 -6.376069e-001 0 0 0
-1.084291e-001 9.368332e-003 -6.142323e-001 0 0 0
-9.148138e-002 2.642475e-002 -6.034946e-001 0 0 0
-7.062166e-002 5.613427e-002 -6.044406e-001 0 0 0
-6.003045e-002 1.088174e-001 -6.460783e-001 0 0 0
-6.848502e-002 1.220954e-001 -6.725820e-001 0 0 0
-1.057586e-001 1.253349e-001 -7.333595e-001 0 0 0
-1.265362e-001 1.161496e-001 -7.503133e-001 0 0 0
-1.489363e-001 1.052979e-001 -7.676950e-001 0 0 0
-1.681736e-001 9.775866e-002 -7.805934e-001 0 0 0
-1.908957e-001 8.945905e-002 -7.864073e-001 0 0 0
-2.073603e-001 8.146953e-002 -7.907654e-001 0 0 0
-2.163072e-001 7.133061e-002 -7.909327e-001 0 0 0
-2.191711e-001 6.452277e-002 -7.909563e-001 0 0 0
-2.094748e-001 4.423670e-002 -8.231623e-001 0 0 0
-2.128116e-001 3.586707e-002 -8.327539e-001 0 0 0
-2.175502e-001 2.707609e-002 -8.464310e-001 0 0 0
-2.202257e-001 1.892899e-002 -8.580907e-001 0 0 0
-2.216291e-001 1.026633e-002 -8.728188e-001 0 0 0
-2.209238e-001 1.933190e-003 -8.851991e-001 0 0 0
-2.203969e-001 -7.281700e-003 -8.967193e-001 0 0 0
-2.161218e-001 -1.553333e-002 -9.091311e-001 0 0 0
-2.096683e-001 -2.274639e-002 -9.193259e-001 0 0 0
-2.022016e-001 -2.812061e-002 -9.302035e-001 0 0 0
-1.951357e-001 -3.257775e-002 -9.392866e-001 0 0 0
-1.874154e-001 -3.833545e-002 -9.494797e-001 0 0 0
-1.770736e-001 -4.611723e-002 -9.596745e-001 0 0 0
-1.697272e-001 -5.513335e-002 -9.692166e-001 0 0 0
-1.545216e-001 -6.872682e-002 -9.883812e-001 0 0 0
-1.407085e-001 -8.284696e-002 -1.004798e+000 0 0 0
-1.280317e-001 -9.757842e-002 -1.022253e+000 0 0 0
-1.173349e-001 -1.097059e-001 -1.036155e+000 0 0 0
-1.006365e-001 -1.282845e-001 -1.055310e+000 0 0 0
-7.853613e-002 -1.486254e-001 -1.076825e+000 0 0 0
-5.683782e-002 -1.627311e-001 -1.090189e+000 0 0 0
-2.898158e-002 -1.755858e-001 -1.099889e+000 0 0 0
-4.968415e-003 -1.840573e-001 -1.101540e+000 0 0 0
2.207764e-002 -1.910760e-001 -1.101311e+000 0 0 0
1.636465e-001 -1.462156e-001 -9.929843e-001 0 0 0
1.562070e-001 -1.334393e-001 -9.753649e-001 0 0 0
1.449976e-001 -1.230243e-001 -9.606283e-001 0 0 0
1.273553e-001 -1.130052e-001 -9.488584e-001 0 0 0
1.046881e-001 -1.001002e-001 -9.414826e-001 0 0 0
8.250691e-002 -8.841290e-002 -9.391682e-001 0 0 0
5.399001e-002 -7.537732e-002 -9.387165e-001 0 0 0
2.844722e-002 -6.518885e-002 -9.418832e-001 0 0 0
1.383508e-003 -5.574921e-002 -9.497694e-001 0 0 0
-1.567607e-002 -4.976101e-002 -9.597772e-001 0 0 0
-2.235987e-002 -4.072233e-002 -9.734221e-001 0 0 0
-1.837044e-002 -3.055245e-002 -9.894590e-001 0 0 0
-1.226762e-002 -2.295786e-002 -1.008318e+000 0 0 0
-2.956551e-003 -1.706407e-002 -1.030237e+000 0 0 0
9.324951e-003 -2.130735e-002 -1.052327e+000 0 0 0
1.999507e-002 -3.627696e-002 -1.076733e+000 0 0 0
2.840097e-002 -5.635194e-002 -1.091998e+000 0 0 0
3.805016e-002 -7.758213e-002 -1.095636e+000 0 0 0
5.085514e-002 -9.962174e-002 -1.091460e+000 0 0 0
1.031579e-001 -1.608735e-001 -1.033880e+000 0 0 0
1.149759e-001 -1.518031e-001 -1.018404e+000 0 0 0
1.387480e-001 -1.275747e-001 -1.007087e+000 0 0 0
1.526154e-001 -1.025334e-001 -9.950209e-001 0 0 0
1.630069e-001 -7.212463e-002 -9.797202e-001 0 0 0
1.677327e-001 -4.562685e-002 -9.665078e-001 0 0 0
1.723710e-001 -1.655038e-002 -9.544260e-001 0 0 0
1.735056e-001 8.756222e-003 -9.457829e-001 0 0 0
1.672891e-001 2.857835e-002 -9.390960e-001 0 0 0
-3.411599e-002 -3.155265e-002 -9.882441e-001 0 0 0
-5.446308e-002 -4.865976e-002 -9.766020e-001 0 0 0
-7.400205e-002 -6.148451e-002 -9.558771e-001 0 0 0
-8.780410e-002 -6.797332e-002 -9.336597e-001 0 0 0
-1.010335e-001 -7.266265e-002 -9.010467e-001 0 0 0
-1.053413e-001 -7.142664e-002 -8.647448e-001 0 0 0
-1.043363e-001 -6.264753e-002 -8.358325e-001 0 0 0
-9.972771e-002 -4.268420e-002 -8.063702e-001 0 0 0
-9.264174e-002 -1.650552e-002 -7.790163e-001 0 0 0
6.509142e-002 1.806304e-001 -6.747325e-001 0 0 0
6.995324e-002 1.796929e-001 -6.741543e-001 0 0 0
7.323090e-002 1.806948e-001 -6.743700e-001 0 0 0
7.792933e-002 1.824781e-001 -6.753678e-001 0 0 0
8.130014e-002 1.822479e-001 -6.784861e-001 0 0 0
3.593608e-002 1.643665e-001 -7.063996e-001 0 0 0
1.918981e-002 1.615878e-001 -7.081889e-001 0 0 0
2.820522e-004 1.611339e-001 -7.107116e-001 0 0 0
-2.491827e-002 1.638807e-001 -7.145553e-001 0 0 0
-2.518623e-001 7.289313e-002 -8.606022e-001 0 0 0
-2.135134e-001 6.979917e-002 -8.417715e-001 0 0 0
-1.708596e-001 7.179868e-002 -8.125959e-001 0 0 0
-1.440185e-001 7.638248e-002 -7.807870e-001 0 0 0
-1.123350e-001 8.745857e-002 -7.473211e-001 0 0 0
-9.391862e-002 9.922057e-002 -7.153682e-001 0 0 0
-6.556572e-002 1.913345e-001 -6.684877e-001 0 0 0
-7.495540e-002 1.697977e-001 -6.225903e-001 0 0 0
-6.045100e-002 1.466879e-001 -6.194734e-001 0 0 0
-4.081076e-002 1.136253e-001 -6.223271e-001 0 0 0
-7.458827e-003 8.386442e-002 -6.353591e-001 0 0 0
2.581425e-002 6.019008e-002 -6.540883e-001 0 0 0
4.891364e-002 3.782197e-002 -6.742724e-001 0 0 0
6.548737e-002 1.404956e-002 -6.989637e-001 0 0 0
7.664875e-002 -7.860680e-003 -7.238232e-001 0 0 0
8.559462e-002 -2.525912e-002 -7.582578e-001 0 0 0
9.273196e-002 -3.579272e-002 -7.929240e-001 0 0 0
9.770082e-002 -4.101742e-002 -8.306914e-001 0 0 0
1.002308e-001 -4.046861e-002 -8.614489e-001 0 0 0
1.020049e-001 -3.670577e-002 -8.962431e-001 0 0 0
-3.545099e-003 -1.187147e-001 -1.057445e+000 0 0 0
-3.312222e-003 -1.391308e-001 -1.050092e+000 0 0 0
-8.692884e-003 -1.812373e-001 -1.013167e+000 0 0 0
-1.416346e-002 -1.880042e-001 -9.953088e-001 0 0 0
-2.057255e-002 -1.873487e-001 -9.788357e-001 0 0 0
-2.511785e-002 -1.787217e-001 -9.606639e-001 0 0 0
-2.882431e-002 -1.658142e-001 -9.456796e-001 0 0 0
-3.058300e-002 -1.482396e-001 -9.293964e-001 0 0 0
-3.151614e-002 -1.278472e-001 -9.176489e-001 0 0 0
-3.525276e-002 -1.041308e-001 -9.061476e-001 0 0 0
-7.982392e-002 9.077525e-002 -8.532905e-001 0 0 0
-9.347215e-002 9.039543e-002 -8.544395e-001 0 0 0
-1.373563e-001 5.184464e-002 -8.588057e-001 0 0 0
-1.438036e-001 3.800215e-002 -8.452730e-001 0 0 0
-1.491136e-001 2.525510e-002 -8.274625e-001 0 0 0
-1.530369e-001 8.143391e-003 -8.020117e-001 0 0 0
-1.487464e-001 -7.240022e-003 -7.715446e-001 0 0 0
-1.366876e-001 -1.701087e-002 -7.438648e-001 0 0 0
-1.148454e-001 -2.668856e-002 -7.125357e-001 0 0 0
-8.849414e-002 -3.206600e-002 -6.899627e-001 0 0 0
-5.089282e-002 -3.336023e-002 -6.717092e-001 0 0 0
-1.573434e-002 -3.051139e-002 -6.648655e-001 0 0 0
2.391632e-002 -2.458934e-002 -6.701289e-001 0 0 0
5.234903e-002 -1.712546e-002 -6.840450e-001 0 0 0
7.774886e-002 -6.382358e-003 -7.107967e-001 0 0 0
9.311620e-002 2.921648e-003 -7.428880e-001 0 0 0
9.521024e-002 9.876456e-003 -7.712195e-001 0 0 0
9.206128e-002 1.525798e-002 -8.030774e-001 0 0 0
3.299025e-002 3.395809e-002 -8.714526e-001 0 0 0
-1.197039e-001 5.252831e-002 -8.334700e-001 0 0 0
-1.435506e-001 5.562313e-002 -8.229674e-001 0 0 0
-1.681785e-001 5.779041e-002 -8.129531e-001 0 0 0
-1.973234e-001 5.940650e-002 -8.038884e-001 0 0 0
-2.197818e-001 6.008152e-002 -7.959707e-001 0 0 0
-2.435218e-001 6.100130e-002 -7.888577e-001 0 0 0
-2.655380e-001 6.254214e-002 -7.851189e-001 0 0 0
-2.799718e-001 6.271561e-002 -7.864466e-001 0 0 0
-2.907740e-001 6.004402e-002 -7.959821e-001 0 0 0
-2.928941e-001 5.343288e-002 -8.135640e-001 0 0 0
-2.900139e-001 3.909254e-002 -8.430579e-001 0 0 0
-2.833710e-001 2.430105e-002 -8.681146e-001 0 0 0
-2.267591e-001 -2.724288e-002 -9.402531e-001 0 0 0
-2.209976e-001 -3.359754e-002 -9.476115e-001 0 0 0
-2.165479e-001 -3.998215e-002 -9.541257e-001 0 0 0
-2.153442e-001 -4.761654e-002 -9.553874e-001 0 0 0
-2.229177e-001 -5.946366e-002 -9.564232e-001 0 0 0
-2.315798e-001 -7.279884e-002 -9.531769e-001 0 0 0
-2.391238e-001 -8.816622e-002 -9.476916e-001 0 0 0
-2.443103e-001 -9.602704e-002 -9.433955e-001 0 0 0
-2.499381e-001 -9.695785e-002 -9.474655e-001 0 0 0
-2.561470e-001 -9.345862e-002 -9.575528e-001 0 0 0
-2.540258e-001 -8.079386e-002 -9.598205e-001 0 0 0
-2.363892e-001 -9.420963e-002 -9.262983e-001 0 0 0
-2.161384e-001 -1.078007e-001 -8.828110e-001 0 0 0
-1.985302e-001 -1.110129e-001 -8.456156e-001 0 0 0
-1.819573e-001 -1.055773e-001 -7.985269e-001 0 0 0
-1.673825e-001 -9.668444e-002 -7.611616e-001 0 0 0
-1.576689e-001 -8.355725e-002 -7.199705e-001 0 0 0
-1.509329e-001 -7.015512e-002 -6.832747e-001 0 0 0
-1.482441e-001 -5.615033e-002 -6.562103e-001 0 0 0
-1.445797e-001 -3.910258e-002 -6.280123e-001 0 0 0
-1.455665e-001 -1.775906e-002 -6.134652e-001 0 0 0
-1.428609e-001 6.648713e-003 -6.076592e-001 0 0 0
-1.338068e-001 2.775061e-002 -6.049228e-001 0 0 0
-9.919077e-002 5.470582e-002 -6.032446e-001 0 0 0
-7.490655e-002 6.104924e-002 -6.023187e-001 0 0 0
-5.403129e-002 6.850275e-002 -5.991477e-001 0 0 0
-2.759256e-002 8.013672e-002 -5.951416e-001 0 0 0
-3.028788e-003 9.343503e-002 -5.897468e-001 0 0 0
1.634286e-002 1.097344e-001 -5.859391e-001 0 0 0
5.077856e-002 1.547959e-001 -5.894516e-001 0 0 0
9.358414e-002 9.903682e-002 -5.929790e-001 0 0 0
9.504066e-002 6.052149e-002 -5.984729e-001 0 0 0
9.424596e-002 3.087393e-002 -6.119368e-001 0 0 0
9.469281e-002 7.548581e-003 -6.336148e-001 0 0 0
9.354731e-002 -1.919354e-002 -6.595543e-001 0 0 0
9.704504e-002 -4.051398e-002 -6.854539e-001 0 0 0
1.021090e-001 -5.705664e-002 -7.131295e-001 0 0 0
1.124136e-001 -6.702950e-002 -7.428639e-001 0 0 0
1.221663e-001 -7.481356e-002 -7.707337e-001 0 0 0
1.297989e-001 -8.021675e-002 -7.956448e-001 0 0 0
1.388382e-001 -8.452478e-002 -8.236469e-001 0 0 0
1.473444e-001 -8.892362e-002 -8.505023e-001 0 0 0
1.526186e-001 -9.407483e-002 -8.738828e-001 0 0 0
1.590466e-001 -9.816333e-002 -9.038421e-001 0 0 0
1.658182e-001 -1.021268e-001 -9.234757e-001 0 0 0
1.637097e-001 -1.097596e-001 -9.466836e-001 0 0 0
1.070293e-001 -1.374894e-001 -1.021354e+000 0 0 0
7.413937e-002 -1.337332e-001 -1.041672e+000 0 0 0
3.841953e-002 -1.276288e-001 -1.075548e+000 0 0 0
-9.243921e-002 -8.797346e-002 -1.086761e+000 0 0 0
-1.104195e-001 -8.698850e-002 -1.070640e+000 0 0 0
-1.186172e-001 -1.000005e-001 -1.047510e+000 0 0 0
-1.056263e-001 -1.471544e-001 -9.999656e-001 0 0 0
-9.214952e-002 -1.626368e-001 -9.774865e-001 0 0 0
-7.409954e-002 -1.714702e-001 -9.600642e-001 0 0 0
-5.938782e-002 -1.715408e-001 -9.611654e-001 0 0 0
-4.750942e-002 -1.521951e-001 -9.723293e-001 0 0 0
-2.992076e-002 -1.232769e-001 -9.847391e-001 0 0 0
1.264741e-001 -5.881977e-002 -9.450121e-001 0 0 0
1.315180e-001 -5.399506e-002 -9.108083e-001 0 0 0
7.125631e-002 -4.940692e-002 -8.269565e-001 0 0 0
2.188581e-003 -7.359999e-002 -7.848868e-001 0 0 0
-2.674222e-002 -7.937028e-002 -7.741470e-001 0 0 0
-5.875606e-002 -7.823379e-002 -7.616834e-001 0 0 0
-8.531147e-002 -7.918657e-002 -7.584939e-001 0 0 0
-1.094759e-001 -7.716851e-002 -7.555159e-001 0 0 0
-1.273603e-001 -6.745195e-002 -7.485395e-001 0 0 0
-1.386285e-001 -5.896376e-002 -7.403646e-001 0 0 0
-1.555302e-001 -5.282763e-002 -7.370853e-001 0 0 0
-1.683010e-001 -4.461565e-002 -7.364933e-001 0 0 0
-1.729269e-001 -2.841746e-002 -7.297831e-001 0 0 0
-1.765220e-001 -1.113392e-002 -7.231376e-001 0 0 0
-1.796243e-001 1.339147e-002 -7.137660e-001 0 0 0
-1.842791e-001 4.159781e-002 -7.043055e-001 0 0 0
-1.906236e-001 6.884590e-002 -6.939611e-001 0 0 0
-2.062266e-001 1.206449e-001 -6.669321e-001 0 0 0
-1.589236e-002 1.276770e-001 -6.089315e-001 0 0 0
-4.075679e-003 1.136777e-001 -6.555726e-001 0 0 0
-1.924552e-003 9.053703e-002 -6.996995e-001 0 0 0
-4.116376e-002 4.225753e-002 -7.673462e-001 0 0 0
-5.995614e-002 3.062563e-002 -7.846824e-001 0 0 0
-7.409149e-002 2.180945e-002 -7.961208e-001 0 0 0
-7.434087e-002 6.562080e-003 -8.123076e-001 0 0 0
-7.564151e-002 4.811720e-003 -8.175884e-001 0 0 0
-8.073063e-002 4.004657e-003 -8.254159e-001 0 0 0
-9.212346e-002 6.184446e-003 -8.361337e-001 0 0 0
-1.081391e-001 9.822274e-003 -8.422501e-001 0 0 0
-1.302688e-001 1.499933e-002 -8.455102e-001 0 0 0
-1.471471e-001 1.776856e-002 -8.450780e-001 0 0 0
-1.594371e-001 2.161451e-002 -8.442788e-001 0 0 0
-1.642755e-001 2.977644e-002 -8.415790e-001 0 0 0
-1.607886e-001 3.547229e-002 -8.455778e-001 0 0 0
-1.520392e-001 4.760481e-002 -8.565430e-001 0 0 0
-1.370120e-001 5.742685e-002 -8.718271e-001 0 0 0
-1.206899e-001 6.282206e-002 -8.862602e-001 0 0 0
-1.041105e-001 6.514601e-002 -8.989916e-001 0 0 0
-8.418026e-002 6.232864e-002 -9.133983e-001 0 0 0
-6.751948e-002 5.244395e-002 -9.302891e-001 0 0 0
-5.930433e-002 4.054621e-002 -9.497708e-001 0 0 0
-5.453710e-002 2.249543e-002 -9.763355e-001 0 0 0
-5.227134e-002 2.763807e-003 -9.973343e-001 0 0 0
-4.939148e-002 -2.233893e-002 -1.020561e+000 0 0 0
-4.542914e-002 -4.278839e-002 -1.040135e+000 0 0 0
-4.122283e-002 -6.513695e-002 -1.063072e+000 0 0 0
-3.745202e-002 -8.549089e-002 -1.084153e+000 0 0 0
-3.213165e-002 -1.013656e-001 -1.100851e+000 0 0 0
-2.574750e-002 -1.157095e-001 -1.113576e+000 0 0 0
-1.403450e-002 -1.315135e-001 -1.123914e+000 0 0 0
2.854842e-004 -1.427950e-001 -1.131188e+000 0 0 0
1.580469e-002 -1.512978e-001 -1.133490e+000 0 0 0
3.511886e-002 -1.600404e-001 -1.133957e+000 0 0 0
5.457265e-002 -1.670972e-001 -1.130930e+000 0 0 0
7.446639e-002 -1.725388e-001 -1.118270e+000 0 0 0
2.094524e-001 -1.105578e-001 -9.025120e-001 0 0 0
1.924661e-001 -1.052331e-001 -8.870534e-001 0 0 0
1.786397e-001 -1.015022e-001 -8.725226e-001 0 0 0
1.581774e-001 -9.991499e-002 -8.576201e-001 0 0 0
1.368639e-001 -1.016947e-001 -8.478019e-001 0 0 0
1.208959e-001 -1.090009e-001 -8.474439e-001 0 0 0
1.049388e-001 -1.239605e-001 -8.529015e-001 0 0 0
9.171822e-002 -1.426487e-001 -8.608281e-001 0 0 0
8.395060e-002 -1.576960e-001 -8.731549e-001 0 0 0
7.848587e-002 -1.696584e-001 -8.802416e-001 0 0 0
7.415835e-002 -1.786052e-001 -8.890638e-001 0 0 0
7.065814e-002 -1.835797e-001 -8.985551e-001 0 0 0
6.865213e-002 -1.865296e-001 -9.078499e-001 0 0 0
6.702237e-002 -1.902479e-001 -9.188541e-001 0 0 0
6.384603e-002 -1.946862e-001 -9.331935e-001 0 0 0
5.570557e-002 -2.000932e-001 -9.535625e-001 0 0 0
4.555367e-002 -2.041176e-001 -9.744140e-001 0 0 0
3.013652e-002 -2.083866e-001 -1.007229e+000 0 0 0
1.630935e-002 -2.087694e-001 -1.028655e+000 0 0 0
1.802890e-003 -2.063352e-001 -1.045775e+000 0 0 0
-1.107274e-002 -2.027403e-001 -1.066662e+000 0 0 0
-2.535226e-002 -1.960263e-001 -1.086581e+000 0 0 0
-3.349090e-002 -1.871807e-001 -1.100087e+000 0 0 0
-4.321735e-002 -1.754067e-001 -1.113097e+000 0 0 0
-5.013439e-002 -1.613990e-001 -1.125906e+000 0 0 0
-5.886427e-002 -1.476984e-001 -1.132772e+000 0 0 0
-7.455919e-002 -1.301680e-001 -1.135266e+000 0 0 0
-9.071744e-002 -1.135940e-001 -1.129938e+000 0 0 0
-1.017296e-001 -9.829792e-002 -1.125609e+000 0 0 0
-1.128714e-001 -8.796518e-002 -1.114367e+000 0 0 0
-1.201699e-001 -8.136727e-002 -1.102390e+000 0 0 0
-1.275729e-001 -7.628052e-002 -1.087116e+000 0 0 0
-1.330472e-001 -7.308235e-002 -1.072981e+000 0 0 0
-1.382800e-001 -6.963493e-002 -1.054919e+000 0 0 0
-1.410479e-001 -6.420330e-002 -1.037529e+000 0 0 0
-1.400824e-001 -5.621368e-002 -1.018699e+000 0 0 0
-1.355621e-001 -4.612457e-002 -1.003889e+000 0 0 0
-1.279889e-001 -3.642910e-002 -1.001318e+000 0 0 0
-1.200887e-001 -2.511663e-002 -9.976441e-001 0 0 0
-1.125314e-001 -1.285413e-002 -9.916125e-001 0 0 0
-1.011550e-001 -2.609303e-003 -9.888054e-001 0 0 0
-8.935429e-002 4.398941e-003 -9.930167e-001 0 0 0
-7.555273e-002 7.623758e-003 -1.006929e+000 0 0 0
-6.289127e-002 5.684202e-003 -1.025544e+000 0 0 0
-5.318772e-002 2.637000e-004 -1.042877e+000 0 0 0
-3.851725e-002 -8.387974e-003 -1.061828e+000 0 0 0
-1.946755e-002 -1.644460e-002 -1.079165e+000 0 0 0
-1.299923e-003 -2.144753e-002 -1.095340e+000 0 0 0
9.544536e-003 -2.601111e-002 -1.105439e+000 0 0 0
1.691422e-002 -3.058758e-002 -1.114433e+000 0 0 0
1.814759e-002 -3.567102e-002 -1.122899e+000 0 0 0
1.393454e-002 -3.775784e-002 -1.131192e+000 0 0 0
3.480995e-003 -3.928893e-002 -1.141503e+000 0 0 0
-6.352911e-003 -4.010657e-002 -1.148819e+000 0 0 0
-1.753208e-002 -4.135715e-002 -1.148729e+000 0 0 0
-2.725524e-002 -4.209250e-002 -1.143373e+000 0 0 0
-3.201183e-002 -4.563629e-002 -1.130649e+000 0 0 0
-3.467180e-002 -4.788501e-002 -1.116895e+000 0 0 0
-3.695420e-002 -4.877096e-002 -1.102166e+000 0 0 0
-4.145190e-002 -4.574476e-002 -1.089900e+000 0 0 0
-4.557408e-002 -3.956757e-002 -1.076013e+000 0 0 0
-4.546200e-002 -3.343285e-002 -1.061764e+000 0 0 0
-4.142682e-002 -2.953493e-002 -1.048344e+000 0 0 0
-6.212417e-002 1.382906e-002 -2.123551e-001 0 255 0
-5.765609e-002 1.293823e-002 -2.621471e-001 255 255 0
-6.797031e-001 -2.114220e-002 -4.570569e-001 255 0 0
-6.379751e-001 -1.597394e-002 -4.841136e-001 255 255 0
