ply
format ascii 1.0
element face 0
property list uchar int vertex_indices
element vertex 535
property float x
property float y
property float z
property uchar diffuse_red
property uchar diffuse_green
property uchar diffuse_blue
end_header
1.507029e-001 -9.386631e-002 -9.611730e-001 0 0 0
1.410148e-001 -9.676291e-002 -9.373452e-001 0 0 0
1.329148e-001 -9.543862e-002 -9.144203e-001 0 0 0
1.231239e-001 -9.107587e-002 -8.884741e-001 0 0 0
1.063431e-001 -8.348833e-002 -8.592886e-001 0 0 0
8.973516e-002 -7.560201e-002 -8.351481e-001 0 0 0
-1.026009e-002 -2.632737e-002 -7.449312e-001 0 0 0
-3.439462e-002 -1.732446e-002 -7.385050e-001 0 0 0
-5.033739e-002 -1.122997e-002 -7.356183e-001 0 0 0
-9.665168e-002 -1.038262e-002 -7.449445e-001 0 0 0
-1.217205e-001 2.421248e-003 -7.453185e-001 0 0 0
-1.328002e-001 1.679229e-002 -7.326578e-001 0 0 0
-1.387946e-001 3.140096e-002 -7.095340e-001 0 0 0
-1.400559e-001 5.169251e-002 -6.708546e-001 0 0 0
-1.107012e-001 8.401686e-002 -6.042512e-001 0 0 0
-8.923526e-002 9.024566e-002 -5.855606e-001 0 0 0
-4.385244e-002 9.070609e-002 -5.801863e-001 0 0 0
-2.253329e-002 8.615774e-002 -5.897627e-001 0 0 0
1.794421e-004 7.895599e-002 -6.121371e-001 0 0 0
1.255252e-002 7.006565e-002 -6.524267e-001 0 0 0
1.060549e-002 6.155734e-002 -6.956330e-001 0 0 0
-1.711829e-003 5.245597e-002 -7.298228e-001 0 0 0
-1.977794e-002 4.401241e-002 -7.652032e-001 0 0 0
-4.341014e-002 3.648421e-002 -7.951410e-001 0 0 0
-6.603839e-002 3.664052e-002 -8.113570e-001 0 0 0
-8.919481e-002 4.107728e-002 -8.352364e-001 0 0 0
-1.425937e-001 4.349666e-002 -8.425530e-001 0 0 0
-1.407682e-001 2.022678e-002 -8.361927e-001 0 0 0
-1.318185e-001 -1.306534e-002 -8.358940e-001 0 0 0
-1.147281e-001 -5.133008e-002 -8.372852e-001 0 0 0
-8.905907e-002 -8.778982e-002 -8.382293e-001 0 0 0
-6.445117e-002 -1.128728e-001 -8.382335e-001 0 0 0
-3.022815e-002 -1.329376e-001 -8.357620e-001 0 0 0
-3.431540e-003 -1.430763e-001 -8.305351e-001 0 0 0
1.709508e-002 -1.441831e-001 -8.202581e-001 0 0 0
3.622962e-002 -1.399663e-001 -8.094029e-001 0 0 0
4.765068e-002 -1.327917e-001 -8.002620e-001 0 0 0
5.758811e-002 -1.267847e-001 -7.937106e-001 0 0 0
5.869824e-002 -1.171791e-001 -7.826602e-001 0 0 0
4.976999e-002 -1.069824e-001 -7.757224e-001 0 0 0
3.582121e-002 -1.005578e-001 -7.764048e-001 0 0 0
1.448049e-002 -9.638125e-002 -7.832606e-001 0 0 0
-5.584574e-003 -9.701272e-002 -7.991653e-001 0 0 0
-2.509213e-002 -9.647290e-002 -8.141546e-001 0 0 0
-4.226339e-002 -9.886756e-002 -8.376990e-001 0 0 0
-6.176130e-002 -1.012247e-001 -8.587379e-001 0 0 0
-7.566663e-002 -1.013390e-001 -8.749921e-001 0 0 0
-8.421449e-002 -9.686840e-002 -8.916046e-001 0 0 0
-9.218693e-002 -8.357690e-002 -9.019180e-001 0 0 0
-1.031372e-001 2.762789e-002 -8.861841e-001 0 0 0
-1.050427e-001 4.234876e-002 -8.690280e-001 0 0 0
-1.112665e-001 5.290563e-002 -8.521485e-001 0 0 0
-1.175489e-001 5.871957e-002 -8.353216e-001 0 0 0
-1.275221e-001 6.167164e-002 -8.176678e-001 0 0 0
-1.353266e-001 6.509042e-002 -8.041548e-001 0 0 0
-1.445518e-001 6.939547e-002 -7.931639e-001 0 0 0
-1.550809e-001 7.467933e-002 -7.828246e-001 0 0 0
-2.426035e-001 1.163557e-001 -7.096322e-001 0 0 0
-2.516223e-001 1.236059e-001 -6.880933e-001 0 0 0
1.446573e-002 1.040402e-001 -5.369323e-001 0 0 0
4.653123e-002 8.812053e-002 -5.747033e-001 0 0 0
5.796430e-002 7.695500e-002 -6.015507e-001 0 0 0
6.199857e-002 6.632238e-002 -6.217098e-001 0 0 0
6.419719e-002 5.771211e-002 -6.428331e-001 0 0 0
2.624445e-002 2.615939e-002 -7.354998e-001 0 0 0
4.919349e-003 2.506332e-002 -7.525855e-001 0 0 0
-1.989903e-002 2.635210e-002 -7.618264e-001 0 0 0
-4.555348e-002 2.959275e-002 -7.631379e-001 0 0 0
-7.123340e-002 3.180185e-002 -7.635039e-001 0 0 0
-9.680268e-002 3.392180e-002 -7.591403e-001 0 0 0
-2.283100e-001 6.217479e-002 -7.202077e-001 0 0 0
-2.536415e-001 7.218052e-002 -7.100246e-001 0 0 0
-2.538721e-001 1.234018e-001 -6.903087e-001 0 0 0
-2.359294e-001 6.437465e-002 -7.654429e-001 0 0 0
-2.181923e-001 6.045694e-002 -7.583149e-001 0 0 0
-1.946203e-001 5.691718e-002 -7.500310e-001 0 0 0
-1.739848e-001 5.356880e-002 -7.440487e-001 0 0 0
-1.636339e-001 5.108122e-002 -7.408484e-001 0 0 0
-1.559197e-001 4.782757e-002 -7.413843e-001 0 0 0
-1.520743e-001 4.685403e-002 -7.422276e-001 0 0 0
-1.508975e-001 4.537495e-002 -7.434749e-001 0 0 0
-1.495518e-001 4.357741e-002 -7.430977e-001 0 0 0
-1.468811e-001 4.061730e-002 -7.431570e-001 0 0 0
-1.418826e-001 3.790163e-002 -7.431326e-001 0 0 0
-1.327117e-001 3.640882e-002 -7.417970e-001 0 0 0
-1.224333e-001 3.777305e-002 -7.348003e-001 0 0 0
-1.166748e-001 3.981981e-002 -7.266757e-001 0 0 0
-1.106098e-001 4.229366e-002 -7.175553e-001 0 0 0
-1.068377e-001 4.507353e-002 -7.071800e-001 0 0 0
-9.843745e-002 6.967882e-002 -6.355198e-001 0 0 0
-1.021740e-001 7.173184e-002 -6.151652e-001 0 0 0
-1.050325e-001 7.158293e-002 -5.984623e-001 0 0 0
-1.061520e-001 7.242709e-002 -5.877945e-001 0 0 0
-1.052670e-001 7.487579e-002 -5.761039e-001 0 0 0
-1.017648e-001 7.717921e-002 -5.675352e-001 0 0 0
-5.987855e-002 -5.679396e-003 -5.243505e-001 0 0 0
-5.644314e-002 -3.071223e-003 -5.423003e-001 0 0 0
-5.434705e-002 2.822149e-003 -5.604209e-001 0 0 0
-5.170957e-002 1.212514e-002 -5.880640e-001 0 0 0
-5.521050e-002 2.198147e-002 -6.171252e-001 0 0 0
-6.167483e-002 2.960411e-002 -6.373630e-001 0 0 0
-6.608524e-002 3.519310e-002 -6.564003e-001 0 0 0
-7.410815e-002 3.916192e-002 -6.663341e-001 0 0 0
-8.357012e-002 4.135351e-002 -6.741164e-001 0 0 0
-9.316985e-002 4.156788e-002 -6.824539e-001 0 0 0
-1.029648e-001 3.986459e-002 -6.901517e-001 0 0 0
-1.116754e-001 3.583060e-002 -7.053615e-001 0 0 0
-1.178298e-001 3.007562e-002 -7.188593e-001 0 0 0
-1.257417e-001 2.443757e-002 -7.329761e-001 0 0 0
-1.286089e-001 2.126090e-002 -7.445253e-001 0 0 0
-1.304471e-001 2.154557e-002 -7.510430e-001 0 0 0
-1.322089e-001 2.350367e-002 -7.564765e-001 0 0 0
-1.362435e-001 2.573080e-002 -7.589391e-001 0 0 0
-1.448492e-001 2.655843e-002 -7.544588e-001 0 0 0
-1.513141e-001 2.717276e-002 -7.455303e-001 0 0 0
-1.544660e-001 2.886895e-002 -7.324810e-001 0 0 0
-1.566696e-001 3.157059e-002 -7.215830e-001 0 0 0
-1.581621e-001 3.363593e-002 -7.114024e-001 0 0 0
-1.599919e-001 3.727187e-002 -7.006462e-001 0 0 0
-1.616606e-001 4.283879e-002 -6.911979e-001 0 0 0
-1.644067e-001 4.968461e-002 -6.815540e-001 0 0 0
-1.677669e-001 5.547811e-002 -6.737166e-001 0 0 0
-1.733398e-001 5.964582e-002 -6.648748e-001 0 0 0
-1.804707e-001 6.233217e-002 -6.558237e-001 0 0 0
-1.897600e-001 6.594521e-002 -6.453632e-001 0 0 0
-1.999709e-001 7.100166e-002 -6.385087e-001 0 0 0
-2.109280e-001 7.640971e-002 -6.353713e-001 0 0 0
-2.214439e-001 8.170798e-002 -6.332460e-001 0 0 0
-2.291885e-001 8.572543e-002 -6.314785e-001 0 0 0
-2.291671e-001 9.060932e-002 -6.233360e-001 0 0 0
-1.761454e-001 9.277611e-002 -6.190498e-001 0 0 0
-2.018817e-001 9.192938e-002 -6.342935e-001 0 0 0
-2.229023e-001 9.234819e-002 -6.438980e-001 0 0 0
-2.219874e-001 3.763209e-002 -6.466726e-001 0 0 0
-2.035101e-001 3.907573e-002 -6.514985e-001 0 0 0
-1.920312e-001 3.945567e-002 -6.583029e-001 0 0 0
-1.836227e-001 3.809230e-002 -6.675905e-001 0 0 0
-1.794541e-001 3.216251e-002 -6.786823e-001 0 0 0
-1.848255e-001 2.625230e-002 -6.876478e-001 0 0 0
-2.047798e-001 1.893062e-002 -6.936979e-001 0 0 0
-2.227039e-001 1.572885e-002 -6.971295e-001 0 0 0
-2.365838e-001 1.492557e-002 -6.972955e-001 0 0 0
-2.409871e-001 1.440111e-002 -6.953444e-001 0 0 0
-2.296443e-001 1.113777e-002 -6.903348e-001 0 0 0
-2.016662e-001 5.481684e-003 -6.847113e-001 0 0 0
-1.755857e-001 2.087844e-003 -6.741550e-001 0 0 0
-1.514760e-001 8.287198e-004 -6.582123e-001 0 0 0
-1.339400e-001 4.955901e-003 -6.374434e-001 0 0 0
-1.185383e-001 1.651261e-002 -6.166686e-001 0 0 0
-1.034695e-001 3.183517e-002 -6.070700e-001 0 0 0
-8.429471e-002 5.828485e-002 -6.084895e-001 0 0 0
-7.189043e-002 1.052054e-001 -6.464628e-001 0 0 0
-7.789217e-002 1.181078e-001 -6.734131e-001 0 0 0
-1.094407e-001 1.202516e-001 -7.281929e-001 0 0 0
-1.277760e-001 1.123009e-001 -7.458056e-001 0 0 0
-1.471940e-001 1.024004e-001 -7.613328e-001 0 0 0
-1.648294e-001 9.513775e-002 -7.735731e-001 0 0 0
-1.846905e-001 8.821733e-002 -7.790446e-001 0 0 0
-1.987835e-001 8.053578e-002 -7.828098e-001 0 0 0
-2.076474e-001 7.121338e-002 -7.819444e-001 0 0 0
-2.103778e-001 6.491300e-002 -7.816992e-001 0 0 0
-2.013205e-001 4.559227e-002 -8.117909e-001 0 0 0
-2.042131e-001 3.754204e-002 -8.218275e-001 0 0 0
-2.082394e-001 2.926754e-002 -8.343956e-001 0 0 0
-2.105028e-001 2.145760e-002 -8.458563e-001 0 0 0
-2.115400e-001 1.299256e-002 -8.601220e-001 0 0 0
-2.107590e-001 4.641590e-003 -8.728772e-001 0 0 0
-2.102209e-001 -4.019676e-003 -8.832508e-001 0 0 0
-2.061263e-001 -1.254475e-002 -8.961063e-001 0 0 0
-2.000164e-001 -1.994973e-002 -9.068363e-001 0 0 0
-1.930674e-001 -2.560118e-002 -9.179001e-001 0 0 0
-1.860926e-001 -3.053282e-002 -9.280518e-001 0 0 0
-1.778134e-001 -3.636547e-002 -9.389316e-001 0 0 0
-1.686886e-001 -4.453333e-002 -9.491073e-001 0 0 0
-1.592904e-001 -5.423189e-002 -9.620297e-001 0 0 0
-1.475010e-001 -6.839962e-002 -9.798035e-001 0 0 0
-1.326989e-001 -8.334052e-002 -9.982235e-001 0 0 0
-1.200608e-001 -9.945135e-002 -1.017782e+000 0 0 0
-1.075240e-001 -1.139306e-001 -1.035437e+000 0 0 0
-8.953975e-002 -1.346078e-001 -1.058028e+000 0 0 0
-6.874138e-002 -1.550591e-001 -1.078565e+000 0 0 0
-4.613708e-002 -1.717978e-001 -1.095826e+000 0 0 0
-1.660653e-002 -1.869133e-001 -1.108755e+000 0 0 0
1.159466e-002 -1.988933e-001 -1.116641e+000 0 0 0
4.152503e-002 -2.086529e-001 -1.120884e+000 0 0 0
1.801333e-001 -1.597431e-001 -1.001863e+000 0 0 0
1.706164e-001 -1.459568e-001 -9.837587e-001 0 0 0
1.574080e-001 -1.341708e-001 -9.670126e-001 0 0 0
1.367439e-001 -1.211452e-001 -9.525308e-001 0 0 0
1.139043e-001 -1.086366e-001 -9.438919e-001 0 0 0
8.521990e-002 -9.212363e-002 -9.368198e-001 0 0 0
6.338741e-002 -8.336172e-002 -9.390850e-001 0 0 0
3.502224e-002 -7.053503e-002 -9.400382e-001 0 0 0
5.673059e-003 -5.903235e-002 -9.464685e-001 0 0 0
-1.064902e-002 -5.345967e-002 -9.579086e-001 0 0 0
-1.630041e-002 -4.466172e-002 -9.719244e-001 0 0 0
-1.108357e-002 -3.521978e-002 -9.891832e-001 0 0 0
-3.291187e-003 -2.860260e-002 -1.011168e+000 0 0 0
6.482794e-003 -2.371108e-002 -1.033724e+000 0 0 0
2.050425e-002 -2.881047e-002 -1.060537e+000 0 0 0
3.603559e-002 -4.588056e-002 -1.091529e+000 0 0 0
4.614924e-002 -6.744878e-002 -1.108920e+000 0 0 0
5.679795e-002 -9.043504e-002 -1.114444e+000 0 0 0
6.858517e-002 -1.140460e-001 -1.108670e+000 0 0 0
1.167784e-001 -1.748295e-001 -1.045615e+000 0 0 0
1.329787e-001 -1.664941e-001 -1.032952e+000 0 0 0
1.544085e-001 -1.419806e-001 -1.019619e+000 0 0 0
1.686781e-001 -1.157957e-001 -1.007250e+000 0 0 0
1.769113e-001 -8.459442e-002 -9.926672e-001 0 0 0
1.833671e-001 -5.534996e-002 -9.780239e-001 0 0 0
1.876574e-001 -2.467253e-002 -9.654405e-001 0 0 0
1.876182e-001 1.927567e-003 -9.548163e-001 0 0 0
1.813377e-001 2.271471e-002 -9.492902e-001 0 0 0
-2.639923e-002 -3.536948e-002 -9.885515e-001 0 0 0
-4.883466e-002 -5.198089e-002 -9.730133e-001 0 0 0
-6.923444e-002 -6.236088e-002 -9.499175e-001 0 0 0
-8.486773e-002 -6.720984e-002 -9.231695e-001 0 0 0
-9.929225e-002 -6.966630e-002 -8.900211e-001 0 0 0
-1.058628e-001 -6.659739e-002 -8.519673e-001 0 0 0
-1.056807e-001 -5.684608e-002 -8.240585e-001 0 0 0
-1.024122e-001 -3.716499e-002 -7.954324e-001 0 0 0
-9.624537e-002 -1.143634e-002 -7.700747e-001 0 0 0
4.962016e-002 1.732630e-001 -6.758234e-001 0 0 0
5.419669e-002 1.724075e-001 -6.751983e-001 0 0 0
5.762167e-002 1.735284e-001 -6.756328e-001 0 0 0
6.194011e-002 1.750653e-001 -6.762446e-001 0 0 0
6.555721e-002 1.749489e-001 -6.793036e-001 0 0 0
2.332197e-002 1.579200e-001 -7.052087e-001 0 0 0
6.924267e-003 1.550455e-001 -7.070250e-001 0 0 0
-1.065235e-002 1.546155e-001 -7.090995e-001 0 0 0
-3.421593e-002 1.570520e-001 -7.128169e-001 0 0 0
-2.376954e-001 7.233357e-002 -8.494425e-001 0 0 0
-2.033531e-001 6.960299e-002 -8.302210e-001 0 0 0
-1.656801e-001 7.110572e-002 -8.034634e-001 0 0 0
-1.412573e-001 7.684067e-002 -7.738383e-001 0 0 0
-1.139910e-001 8.612750e-002 -7.405061e-001 0 0 0
-9.897215e-002 9.674347e-002 -7.112805e-001 0 0 0
-7.369943e-002 1.817810e-001 -6.706400e-001 0 0 0
-8.563686e-002 1.603782e-001 -6.265510e-001 0 0 0
-7.324084e-002 1.394082e-001 -6.227446e-001 0 0 0
-5.471488e-002 1.094841e-001 -6.244324e-001 0 0 0
-2.394499e-002 8.266549e-002 -6.364553e-001 0 0 0
6.316492e-003 6.079393e-002 -6.521890e-001 0 0 0
3.138997e-002 3.903620e-002 -6.712755e-001 0 0 0
4.949943e-002 1.551388e-002 -6.935840e-001 0 0 0
6.116383e-002 -5.450507e-003 -7.170090e-001 0 0 0
7.395789e-002 -2.369688e-002 -7.514649e-001 0 0 0
8.436432e-002 -3.535302e-002 -7.879801e-001 0 0 0
9.294017e-002 -4.184176e-002 -8.243032e-001 0 0 0
9.901028e-002 -4.273436e-002 -8.591846e-001 0 0 0
1.029517e-001 -4.011521e-002 -8.929539e-001 0 0 0
8.274550e-003 -1.274983e-001 -1.064992e+000 0 0 0
7.211158e-003 -1.487056e-001 -1.056054e+000 0 0 0
-1.319214e-003 -1.877098e-001 -1.012300e+000 0 0 0
-7.859371e-003 -1.927440e-001 -9.934999e-001 0 0 0
-1.504721e-002 -1.907628e-001 -9.746242e-001 0 0 0
-2.131355e-002 -1.809089e-001 -9.539531e-001 0 0 0
-2.732953e-002 -1.662100e-001 -9.362367e-001 0 0 0
-3.000550e-002 -1.472039e-001 -9.202271e-001 0 0 0
-3.109186e-002 -1.262797e-001 -9.073027e-001 0 0 0
-3.547990e-002 -1.031404e-001 -8.966046e-001 0 0 0
-7.929870e-002 8.797675e-002 -8.465190e-001 0 0 0
-9.187797e-002 8.766101e-002 -8.480193e-001 0 0 0
-1.334546e-001 5.143155e-002 -8.498423e-001 0 0 0
-1.403284e-001 3.861659e-002 -8.354678e-001 0 0 0
-1.465442e-001 2.677833e-002 -8.160821e-001 0 0 0
-1.511425e-001 1.164375e-002 -7.914862e-001 0 0 0
-1.485895e-001 -1.840819e-003 -7.617838e-001 0 0 0
-1.387855e-001 -1.016732e-002 -7.338178e-001 0 0 0
-1.203620e-001 -1.856839e-002 -7.059052e-001 0 0 0
-9.821595e-002 -2.301493e-002 -6.847848e-001 0 0 0
-6.422538e-002 -2.525798e-002 -6.690023e-001 0 0 0
-3.147393e-002 -2.290261e-002 -6.615792e-001 0 0 0
4.900975e-003 -1.827207e-002 -6.650639e-001 0 0 0
3.487150e-002 -1.276722e-002 -6.795803e-001 0 0 0
6.212990e-002 -3.871975e-003 -7.056833e-001 0 0 0
7.916830e-002 3.782832e-003 -7.357760e-001 0 0 0
8.560011e-002 9.867920e-003 -7.679021e-001 0 0 0
8.392839e-002 1.382598e-002 -7.963287e-001 0 0 0
3.006953e-002 3.170520e-002 -8.654541e-001 0 0 0
-1.173872e-001 5.202857e-002 -8.251059e-001 0 0 0
-1.398399e-001 5.572130e-002 -8.149244e-001 0 0 0
-1.638209e-001 5.819703e-002 -8.043728e-001 0 0 0
-1.907322e-001 5.984957e-002 -7.941705e-001 0 0 0
-2.110049e-001 6.082469e-002 -7.863460e-001 0 0 0
-2.323390e-001 6.182191e-002 -7.791771e-001 0 0 0
-2.510096e-001 6.371672e-002 -7.755689e-001 0 0 0
-2.640955e-001 6.396063e-002 -7.766963e-001 0 0 0
-2.732844e-001 6.172570e-002 -7.855303e-001 0 0 0
-2.750814e-001 5.545983e-002 -8.017665e-001 0 0 0
-2.730549e-001 4.169979e-002 -8.306733e-001 0 0 0
-2.671689e-001 2.737610e-002 -8.562154e-001 0 0 0
-2.151676e-001 -2.430506e-002 -9.278713e-001 0 0 0
-2.097487e-001 -3.067191e-002 -9.352479e-001 0 0 0
-2.056866e-001 -3.736697e-002 -9.416074e-001 0 0 0
-2.046488e-001 -4.455118e-002 -9.430930e-001 0 0 0
-2.117689e-001 -5.560814e-002 -9.429565e-001 0 0 0
-2.206722e-001 -6.822338e-002 -9.390237e-001 0 0 0
-2.279521e-001 -8.193671e-002 -9.318420e-001 0 0 0
-2.326770e-001 -8.874774e-002 -9.273546e-001 0 0 0
-2.377407e-001 -8.955690e-002 -9.314633e-001 0 0 0
-2.429141e-001 -8.663131e-002 -9.432608e-001 0 0 0
-2.410373e-001 -7.477308e-002 -9.449947e-001 0 0 0
-2.262926e-001 -8.618332e-002 -9.071568e-001 0 0 0
-2.088029e-001 -9.755771e-002 -8.704861e-001 0 0 0
-1.929522e-001 -1.004079e-001 -8.282470e-001 0 0 0
-1.791085e-001 -9.251238e-002 -7.847932e-001 0 0 0
-1.676084e-001 -8.305215e-002 -7.493808e-001 0 0 0
-1.595914e-001 -6.910953e-002 -7.099899e-001 0 0 0
-1.551373e-001 -5.577711e-002 -6.779926e-001 0 0 0
-1.533579e-001 -4.239071e-002 -6.536170e-001 0 0 0
-1.508364e-001 -2.609914e-002 -6.289736e-001 0 0 0
-1.520402e-001 -6.971920e-003 -6.163375e-001 0 0 0
-1.491897e-001 1.503757e-002 -6.116535e-001 0 0 0
-1.410448e-001 3.354827e-002 -6.093262e-001 0 0 0
-1.095594e-001 5.752743e-002 -6.078039e-001 0 0 0
-8.779326e-002 6.295337e-002 -6.066190e-001 0 0 0
-6.922590e-002 6.940432e-002 -6.038367e-001 0 0 0
-4.517856e-002 7.978677e-002 -6.000997e-001 0 0 0
-2.319758e-002 9.174728e-002 -5.949035e-001 0 0 0
-4.871601e-003 1.066346e-001 -5.918715e-001 0 0 0
2.888377e-002 1.484468e-001 -5.963495e-001 0 0 0
6.692223e-002 9.583604e-002 -5.951026e-001 0 0 0
6.835285e-002 6.045998e-002 -5.999855e-001 0 0 0
6.959829e-002 3.334181e-002 -6.134419e-001 0 0 0
7.102599e-002 1.087465e-002 -6.318564e-001 0 0 0
7.235567e-002 -1.490543e-002 -6.559497e-001 0 0 0
7.710473e-002 -3.545922e-002 -6.794354e-001 0 0 0
8.575208e-002 -5.262591e-002 -7.077241e-001 0 0 0
9.868948e-002 -6.397386e-002 -7.362729e-001 0 0 0
1.114458e-001 -7.322843e-002 -7.632030e-001 0 0 0
1.218146e-001 -7.977327e-002 -7.896893e-001 0 0 0
1.342530e-001 -8.584273e-002 -8.173916e-001 0 0 0
1.462149e-001 -9.189236e-002 -8.458348e-001 0 0 0
1.546250e-001 -9.837225e-002 -8.706476e-001 0 0 0
1.627616e-001 -1.036521e-001 -8.990180e-001 0 0 0
1.741294e-001 -1.096403e-001 -9.246740e-001 0 0 0
1.751355e-001 -1.186690e-001 -9.505163e-001 0 0 0
1.221145e-001 -1.501399e-001 -1.029620e+000 0 0 0
8.904901e-002 -1.462684e-001 -1.051600e+000 0 0 0
5.510044e-002 -1.409601e-001 -1.087481e+000 0 0 0
-7.874791e-002 -9.528172e-002 -1.094354e+000 0 0 0
-9.687281e-002 -9.243685e-002 -1.075646e+000 0 0 0
-1.088735e-001 -1.032286e-001 -1.046962e+000 0 0 0
-1.001006e-001 -1.470047e-001 -9.924008e-001 0 0 0
-8.838069e-002 -1.619628e-001 -9.674011e-001 0 0 0
-7.201457e-002 -1.701861e-001 -9.487419e-001 0 0 0
-5.701842e-002 -1.710538e-001 -9.508346e-001 0 0 0
-4.420264e-002 -1.538105e-001 -9.640299e-001 0 0 0
-2.498841e-002 -1.267632e-001 -9.794178e-001 0 0 0
1.373323e-001 -6.533455e-002 -9.489111e-001 0 0 0
1.376146e-001 -5.911728e-002 -9.136469e-001 0 0 0
6.603821e-002 -4.889595e-002 -8.208992e-001 0 0 0
-7.151564e-003 -6.819368e-002 -7.750361e-001 0 0 0
-3.622707e-002 -7.264521e-002 -7.640576e-001 0 0 0
-6.580251e-002 -7.043901e-002 -7.529420e-001 0 0 0
-9.246848e-002 -6.982637e-002 -7.485075e-001 0 0 0
-1.145786e-001 -6.658835e-002 -7.453459e-001 0 0 0
-1.298635e-001 -5.722434e-002 -7.388616e-001 0 0 0
-1.415516e-001 -4.837616e-002 -7.310344e-001 0 0 0
-1.567701e-001 -4.210576e-002 -7.278710e-001 0 0 0
-1.680497e-001 -3.433773e-002 -7.275745e-001 0 0 0
-1.721865e-001 -1.955744e-002 -7.214995e-001 0 0 0
-1.750799e-001 -3.023501e-003 -7.160637e-001 0 0 0
-1.778597e-001 1.928316e-002 -7.080048e-001 0 0 0
-1.818067e-001 4.490765e-002 -6.995933e-001 0 0 0
-1.873106e-001 6.988545e-002 -6.911024e-001 0 0 0
-2.008562e-001 1.165592e-001 -6.677349e-001 0 0 0
-3.287264e-002 1.234392e-001 -6.148045e-001 0 0 0
-1.904595e-002 1.101217e-001 -6.558708e-001 0 0 0
-1.507195e-002 8.803979e-002 -6.947414e-001 0 0 0
-4.715145e-002 4.266100e-002 -7.608099e-001 0 0 0
-6.474084e-002 3.187661e-002 -7.770893e-001 0 0 0
-7.710680e-002 2.340800e-002 -7.881062e-001 0 0 0
-7.692111e-002 8.687364e-003 -8.035769e-001 0 0 0
-7.807087e-002 6.837663e-003 -8.084950e-001 0 0 0
-8.279338e-002 6.272272e-003 -8.163220e-001 0 0 0
-9.286120e-002 7.904747e-003 -8.263623e-001 0 0 0
-1.068157e-001 1.099497e-002 -8.331776e-001 0 0 0
-1.272695e-001 1.650839e-002 -8.353540e-001 0 0 0
-1.430869e-001 1.960202e-002 -8.356063e-001 0 0 0
-1.546459e-001 2.349024e-002 -8.341067e-001 0 0 0
-1.594495e-001 3.128592e-002 -8.313094e-001 0 0 0
-1.554886e-001 3.702568e-002 -8.367545e-001 0 0 0
-1.467577e-001 4.803587e-002 -8.479994e-001 0 0 0
-1.331957e-001 5.640424e-002 -8.624294e-001 0 0 0
-1.159249e-001 6.154538e-002 -8.794166e-001 0 0 0
-1.002425e-001 6.359118e-002 -8.925658e-001 0 0 0
-7.925933e-002 6.029651e-002 -9.091518e-001 0 0 0
-6.247495e-002 5.015138e-002 -9.268606e-001 0 0 0
-5.225433e-002 3.767187e-002 -9.504206e-001 0 0 0
-4.721508e-002 1.937440e-002 -9.755197e-001 0 0 0
-4.373447e-002 -9.459977e-004 -9.983191e-001 0 0 0
-3.960333e-002 -2.689744e-002 -1.023681e+000 0 0 0
-3.477441e-002 -4.852912e-002 -1.045047e+000 0 0 0
-2.933145e-002 -7.228509e-002 -1.069896e+000 0 0 0
-2.401707e-002 -9.408165e-002 -1.094365e+000 0 0 0
-1.911161e-002 -1.110106e-001 -1.111812e+000 0 0 0
-1.065665e-002 -1.279728e-001 -1.129093e+000 0 0 0
1.736365e-003 -1.444024e-001 -1.141805e+000 0 0 0
1.735113e-002 -1.571686e-001 -1.150352e+000 0 0 0
3.375655e-002 -1.673879e-001 -1.154757e+000 0 0 0
5.418953e-002 -1.769741e-001 -1.156279e+000 0 0 0
7.457468e-002 -1.852597e-001 -1.153911e+000 0 0 0
1.002377e-001 -1.939650e-001 -1.147210e+000 0 0 0
2.188547e-001 -1.190299e-001 -9.047593e-001 0 0 0
2.004682e-001 -1.124041e-001 -8.880978e-001 0 0 0
1.812476e-001 -1.057141e-001 -8.697980e-001 0 0 0
1.593225e-001 -1.036769e-001 -8.545027e-001 0 0 0
1.354935e-001 -1.042117e-001 -8.432709e-001 0 0 0
1.170494e-001 -1.099816e-001 -8.401115e-001 0 0 0
1.017325e-001 -1.248686e-001 -8.457871e-001 0 0 0
9.040916e-002 -1.428177e-001 -8.543465e-001 0 0 0
8.086960e-002 -1.595754e-001 -8.660370e-001 0 0 0
7.740019e-002 -1.706072e-001 -8.732146e-001 0 0 0
7.312219e-002 -1.805338e-001 -8.824516e-001 0 0 0
6.913456e-002 -1.849970e-001 -8.900053e-001 0 0 0
6.776601e-002 -1.886727e-001 -8.996958e-001 0 0 0
6.719897e-002 -1.930441e-001 -9.112568e-001 0 0 0
6.500126e-002 -1.985556e-001 -9.262001e-001 0 0 0
5.906340e-002 -2.055087e-001 -9.490202e-001 0 0 0
5.122300e-002 -2.118825e-001 -9.736468e-001 0 0 0
3.755264e-002 -2.170887e-001 -1.006780e+000 0 0 0
2.514165e-002 -2.186026e-001 -1.030071e+000 0 0 0
1.270489e-002 -2.167634e-001 -1.050338e+000 0 0 0
-2.827568e-004 -2.127728e-001 -1.069734e+000 0 0 0
-1.317053e-002 -2.068028e-001 -1.092255e+000 0 0 0
-1.985429e-002 -1.989202e-001 -1.106788e+000 0 0 0
-2.776413e-002 -1.885130e-001 -1.122285e+000 0 0 0
-3.442222e-002 -1.734633e-001 -1.137494e+000 0 0 0
-4.442426e-002 -1.587031e-001 -1.145887e+000 0 0 0
-5.962046e-002 -1.413655e-001 -1.148411e+000 0 0 0
-7.310570e-002 -1.250868e-001 -1.144656e+000 0 0 0
-8.508198e-002 -1.078343e-001 -1.137464e+000 0 0 0
-9.830756e-002 -9.528602e-002 -1.123652e+000 0 0 0
-1.066603e-001 -8.724320e-002 -1.108644e+000 0 0 0
-1.148819e-001 -8.151429e-002 -1.091702e+000 0 0 0
-1.213490e-001 -7.702242e-002 -1.074550e+000 0 0 0
-1.271885e-001 -7.288003e-002 -1.055008e+000 0 0 0
-1.310317e-001 -6.642125e-002 -1.033447e+000 0 0 0
-1.308156e-001 -5.726417e-002 -1.014097e+000 0 0 0
-1.266841e-001 -4.762889e-002 -9.998481e-001 0 0 0
-1.202588e-001 -3.738221e-002 -9.940229e-001 0 0 0
-1.123124e-001 -2.679575e-002 -9.923242e-001 0 0 0
-1.042561e-001 -1.503182e-002 -9.886484e-001 0 0 0
-9.256202e-002 -4.534158e-003 -9.868445e-001 0 0 0
-7.921454e-002 1.670427e-003 -9.946664e-001 0 0 0
-6.597952e-002 3.984341e-003 -1.008917e+000 0 0 0
-5.232493e-002 1.123544e-003 -1.029862e+000 0 0 0
-4.131793e-002 -5.366151e-003 -1.050983e+000 0 0 0
-2.535149e-002 -1.476007e-002 -1.072691e+000 0 0 0
-3.971978e-003 -2.391575e-002 -1.092701e+000 0 0 0
1.646880e-002 -3.021056e-002 -1.112941e+000 0 0 0
2.883966e-002 -3.568161e-002 -1.125648e+000 0 0 0
3.749647e-002 -4.106885e-002 -1.136858e+000 0 0 0
3.955236e-002 -4.681785e-002 -1.146967e+000 0 0 0
3.579337e-002 -4.926389e-002 -1.156551e+000 0 0 0
2.551183e-002 -5.103089e-002 -1.168087e+000 0 0 0
1.561459e-002 -5.192827e-002 -1.176081e+000 0 0 0
3.605773e-003 -5.288418e-002 -1.174903e+000 0 0 0
-7.239696e-003 -5.308985e-002 -1.167488e+000 0 0 0
-1.342392e-002 -5.602533e-002 -1.151566e+000 0 0 0
-1.740335e-002 -5.760755e-002 -1.134797e+000 0 0 0
-2.100298e-002 -5.773392e-002 -1.117117e+000 0 0 0
-2.732724e-002 -5.430893e-002 -1.102765e+000 0 0 0
-3.159306e-002 -4.734604e-002 -1.087803e+000 0 0 0
-3.242623e-002 -4.062341e-002 -1.073429e+000 0 0 0
-2.763021e-002 -3.528430e-002 -1.058124e+000 0 0 0
-9.765601e-002 7.664436e-002 -5.572307e-001 0 0 0
-9.040576e-002 7.331488e-002 -5.353244e-001 0 0 0
-2.200318e-001 9.082726e-002 -6.155124e-001 0 0 0
-2.073684e-001 9.056209e-002 -6.092639e-001 0 0 0
-1.925098e-001 9.004654e-002 -6.048405e-001 0 0 0
-1.805838e-001 9.020420e-002 -6.015675e-001 0 0 0
-1.746022e-001 9.075854e-002 -5.984195e-001 0 0 0
-1.718750e-001 9.424229e-002 -5.996371e-001 0 0 0
-1.671349e-001 9.956601e-002 -6.025741e-001 0 0 0
-1.634904e-001 1.056489e-001 -6.060094e-001 0 0 0
-1.619376e-001 1.104388e-001 -6.091130e-001 0 0 0
-1.612109e-001 1.126072e-001 -6.103594e-001 0 0 0
-1.624524e-001 1.127259e-001 -6.096286e-001 0 0 0
-1.703492e-001 1.112606e-001 -6.112367e-001 0 0 0
-1.820108e-001 1.097623e-001 -6.143599e-001 0 0 0
-1.885837e-001 1.092115e-001 -6.170527e-001 0 0 0
-1.877499e-001 1.091555e-001 -6.172665e-001 0 0 0
-1.798533e-001 1.099004e-001 -6.112155e-001 0 0 0
-1.658502e-001 1.103139e-001 -5.981499e-001 0 0 0
-1.523728e-001 1.098854e-001 -5.856796e-001 0 0 0
-1.388916e-001 1.091349e-001 -5.744925e-001 0 0 0
-1.233847e-001 1.093471e-001 -5.627883e-001 0 0 0
-1.126786e-001 1.097905e-001 -5.535725e-001 0 0 0
-1.065268e-001 1.093020e-001 -5.464872e-001 0 0 0
-1.022496e-001 1.077873e-001 -5.430843e-001 0 0 0
-9.889309e-002 1.097553e-001 -5.393052e-001 0 0 0
-9.226504e-002 1.156770e-001 -5.364599e-001 0 0 0
-8.850066e-002 1.195338e-001 -5.366935e-001 0 0 0
-9.000612e-002 1.174046e-001 -5.380132e-001 0 0 0
-9.428460e-002 1.123188e-001 -5.440715e-001 0 0 0
-1.006432e-001 1.071689e-001 -5.518184e-001 0 0 0
-1.068846e-001 1.047276e-001 -5.614094e-001 0 0 0
-1.149337e-001 1.042231e-001 -5.704665e-001 0 0 0
-1.212274e-001 1.046203e-001 -5.779786e-001 0 0 0
-1.230859e-001 1.049558e-001 -5.825478e-001 0 0 0
-1.241921e-001 1.048339e-001 -5.844629e-001 0 0 0
-1.249911e-001 1.042010e-001 -5.852934e-001 0 0 0
-1.258544e-001 1.036975e-001 -5.856081e-001 0 0 0
-1.270043e-001 1.037074e-001 -5.864128e-001 0 0 0
-1.281461e-001 1.040211e-001 -5.870684e-001 0 0 0
-1.318950e-001 1.030735e-001 -5.889633e-001 0 0 0
-1.379390e-001 1.005864e-001 -5.950387e-001 0 0 0
-1.537920e-001 9.617685e-002 -6.064947e-001 0 0 0
-7.398660e-002 8.171786e-002 -6.241438e-001 0 0 0
1.138485e-002 1.248699e-001 -5.928563e-001 0 0 0
-1.090860e-001 -1.218081e-001 -1.020225e+000 0 0 0
-1.942322e-001 9.575354e-002 -6.787398e-001 0 0 0
-2.101892e-001 1.316873e-001 -6.576371e-001 0 0 0
-2.184314e-001 1.343551e-001 -6.469448e-001 0 0 0
-2.263505e-001 1.269165e-001 -6.358004e-001 0 0 0
-8.373046e-002 1.164686e-001 -5.383815e-001 0 0 0
-1.113207e-001 -6.428537e-003 -7.466616e-001 0 0 0
3.541347e-002 9.478407e-002 -5.582179e-001 0 0 0
-1.250857e-001 5.042086e-002 -6.091299e-001 0 0 0
1.596269e-002 1.291107e-001 -5.924780e-001 0 0 0
6.406477e-002 1.300140e-001 -5.977477e-001 0 0 0
2.860247e-002 -5.948237e-002 -7.934366e-001 0 0 0
-5.346069e-002 1.259168e-001 -5.753045e-001 0 0 0
-1.166755e-001 8.535965e-002 -6.038951e-001 0 0 0
-9.722577e-002 2.760265e-002 -2.861979e-001 0 255 0
-8.927517e-002 2.536056e-002 -3.355108e-001 255 255 0
-5.728740e-001 4.042467e-003 -4.983395e-001 255 0 0
-5.318306e-001 8.049439e-003 -5.266129e-001 255 255 0
4.586889e-001 -4.712929e-001 -1.083080e+000 0 255 0
4.247672e-001 -4.352762e-001 -1.075860e+000 255 255 0
-1.244511e-001 -4.629790e-001 -1.282068e+000 255 0 0
-1.183332e-001 -4.234269e-001 -1.252098e+000 255 255 0
